ply
format ascii 1.0
element vertex 61
property float x
property float y
property float z
property uchar diffuse_red
property uchar diffuse_green
property uchar diffuse_blue
end_header
2.07472 -8.43767 -6.21523 0 255 0
1.8366 -8.21055 -5.44974 255 0 255
1.59444 -7.70133 -4.69396 0 255 0
1.36616 -7.14586 -3.9975 255 0 255
1.16444 -6.50057 -3.38567 255 0 255
0.952002 -5.74061 -2.74347 255 0 255
0.757443 -5.05625 -2.16627 255 0 255
0.5698 -4.27499 -1.59509 255 0 255
0.398519 -3.36803 -1.10977 0 255 0
0.265844 -2.55883 -0.736119 0 255 0
0.125489 -1.64817 -0.340136 255 0 255
0.00801897 -0.813524 0.00390663 0 255 0
-0.0604129 0.158 0.148167 255 0 255
-0.133596 1.11409 0.33318 0 255 0
-0.158788 2.14877 0.413472 0 255 0
-0.127731 3.01974 0.289378 255 0 255
0.0545922 3.63182 -0.444031 0 255 0
0.23258 4.21567 -1.17451 0 255 0
0.358486 4.75412 -1.70904 255 0 255
0.444328 5.35938 -2.09982 255 0 255
0.576059 5.81093 -2.64328 0 255 0
0.681425 6.36676 -3.10361 255 0 255
0.747719 6.92927 -3.4182 255 0 255
0.84229 7.61734 -3.87185 255 0 255
0.898691 8.29621 -4.18268 255 0 255
0.9575 8.96776 -4.50225 255 0 255
1.04073 9.5268 -4.86895 0 255 0
1.10868 10.0672 -5.19501 255 0 255
1.17549 10.6749 -5.53933 255 0 255
1.24221 11.3076 -5.86282 0 255 0
1.31563 11.9322 -6.2005 255 0 255
1.39634 12.6546 -6.57169 0 255 0
1.46736 13.3486 -6.90402 255 0 255
1.60127 13.7553 -7.46005 255 0 255
1.6819 14.3376 -7.81227 0 255 0
1.77337 14.8717 -8.20643 0 255 0
1.86549 15.4131 -8.61287 255 0 255
1.96393 15.9993 -9.04329 255 0 255
2.04613 16.5682 -9.41252 255 0 255
2.18348 17.5104 -10.0143 0 255 0
2.25793 18.1578 -10.3757 0 255 0
2.3715 18.7835 -10.8719 255 0 255
2.50816 19.4394 -11.4491 255 0 255
2.62531 19.967 -11.9463 255 0 255
2.73673 20.3852 -12.4012 0 255 0
2.78793 20.726 -12.6267 0 255 0
2.78939 21.231 -12.5785 0 255 0
2.872 21.8934 -12.8572 255 0 255
2.96036 22.1974 -13.4165 0 255 0
3.08278 22.4555 -14.0459 255 0 255
3.24811 22.8335 -14.7421 255 0 255
3.46387 23.138 -15.4345 255 0 255
3.80632 23.3919 -16.1453 0 255 0
3.95476 23.6227 -16.6729 255 0 255
4.12132 23.7602 -17.296 0 255 0
4.35526 23.8705 -18.176 255 0 255
4.46349 22.2326 -18.7457 255 0 255
4.61517 22.1602 -19.3321 0 255 0
4.81399 21.9416 -20.1171 255 0 255
4.8632 21.4087 -20.3194 255 0 255
4.90821 20.8942 -20.508 255 0 255
