ply
format ascii 1.0
element face 0
property list uchar int vertex_indices
element vertex 649
property float x
property float y
property float z
property uchar diffuse_red
property uchar diffuse_green
property uchar diffuse_blue
end_header
-1.348888e-01 -8.277475e-01 -2.694386e+00 226 232 74
-4.714927e-01 -4.832464e-01 -2.684551e+00 31 27 24
-4.263494e-01 -5.374215e-01 -2.715422e+00 102 165 98
-4.996986e-01 -3.956817e-01 -2.635689e+00 38 39 34
-1.585471e-01 -3.082558e-01 -2.581008e+00 208 204 203
-1.187029e-01 -3.010845e-01 -2.597652e+00 217 218 212
-9.619784e-02 -2.494784e-01 -2.587770e+00 97 54 30
6.858681e-01 3.671882e-01 -2.882227e+00 220 237 236
-1.155111e-01 -4.204932e-01 -2.636927e+00 209 211 205
-4.292295e-01 -2.525845e-01 -2.639739e+00 55 78 65
-7.182650e-01 -2.294470e-01 -2.565932e+00 108 171 180
-7.236761e-01 -1.827303e-01 -2.548177e+00 113 171 178
-4.838953e-01 -5.804974e-01 -2.696936e+00 90 155 95
-1.346442e-01 -4.687393e-01 -2.645722e+00 29 28 26
9.017115e-03 -4.379080e-01 -2.681713e+00 28 28 33
-8.434804e-02 -4.193801e-01 -2.646180e+00 24 22 23
-1.188074e-01 -3.663465e-01 -2.616917e+00 208 210 206
-5.654869e-02 -3.600873e-01 -2.635367e+00 208 210 202
-4.280408e-01 -9.978140e-01 -2.561115e+00 33 38 41
1.183224e-01 -6.022381e-01 -2.770376e+00 78 7 0
6.678754e-02 -5.972182e-01 -2.749117e+00 168 130 128
-7.304702e-01 -4.817300e-01 -2.643245e+00 131 186 191
-5.142781e-02 -5.087209e-01 -2.684057e+00 207 211 204
2.723334e-02 -4.972956e-01 -2.706730e+00 207 210 203
-1.075753e-01 -4.545832e-01 -2.648927e+00 30 29 35
-1.075753e-01 -4.545832e-01 -2.648927e+00 30 29 35
1.079654e-01 -4.274910e-01 -2.712128e+00 49 11 11
4.851545e-02 -4.038396e-01 -2.685119e+00 30 27 28
4.844925e-02 -4.039761e-01 -2.685634e+00 30 27 28
-1.406986e-01 -3.942546e-01 -2.619557e+00 29 28 32
-4.867957e-01 -3.333486e-01 -2.625826e+00 54 103 70
3.211442e-02 -3.249234e-01 -2.654737e+00 239 43 42
9.637752e-02 -3.003849e-01 -2.668634e+00 56 9 0
2.323020e-01 4.384675e-01 -2.727950e+00 189 216 227
-7.038911e-01 -6.168135e-01 -2.699214e+00 127 34 48
-1.300833e-01 -6.367094e-01 -2.701529e+00 34 24 4
-1.299051e-01 -6.368507e-01 -2.702136e+00 34 24 4
-7.138161e-01 -4.955496e-01 -2.653167e+00 149 42 81
-1.243212e-01 -4.481133e-01 -2.641813e+00 211 211 203
7.835392e-02 -4.289953e-01 -2.703237e+00 36 34 37
7.859546e-02 -4.289377e-01 -2.702831e+00 36 34 37
-1.264011e-01 -4.029339e-01 -2.626099e+00 214 217 209
6.482771e-02 -3.768121e-01 -2.681955e+00 225 225 223
9.091340e-02 -3.732657e-01 -2.690144e+00 224 225 217
1.300903e-02 -3.534269e-01 -2.656591e+00 227 37 31
4.113968e-02 -3.505331e-01 -2.665407e+00 234 35 31
-4.744392e-01 -2.173694e-01 -2.598853e+00 65 86 77
2.002134e+00 -1.458978e+00 -4.871297e+00 146 144 149
2.193460e+00 -1.446421e+00 -4.898123e+00 87 77 83
-3.108810e-01 -8.921558e-01 -2.626244e+00 38 84 154
-1.140300e-03 -5.025146e-01 -2.699360e+00 213 215 213
-3.696810e-01 -1.765551e-01 -2.637239e+00 193 208 198
1.042523e+00 2.372920e-01 -3.157081e+00 56 51 49
-5.146138e-02 -4.159554e-01 -2.654323e+00 162 162 160
-5.078949e-01 -3.171983e-01 -2.609864e+00 78 158 112
-1.620768e-01 -4.930817e-01 -2.651563e+00 202 200 194
1.037498e+00 2.393031e-01 -3.149150e+00 56 51 49
-7.726122e-01 -1.229537e-01 -2.507883e+00 189 118 137
1.882529e+00 -8.648807e-01 -5.459168e+00 123 111 116
1.941482e+00 -6.307294e-01 -5.695677e+00 137 126 132
2.596866e-01 4.653372e-01 -2.724465e+00 220 246 252
1.848973e+00 -1.068128e+00 -5.263068e+00 86 77 83
1.831576e+00 -9.310066e-01 -5.392263e+00 122 113 121
1.782623e+00 -7.536250e-01 -5.570601e+00 95 80 83
-3.103519e-01 -8.925356e-01 -2.625118e+00 38 84 154
5.464222e-02 -8.440360e-01 -2.679253e+00 211 234 128
1.876283e+00 -6.282223e-01 -5.706094e+00 90 69 71
2.585783e-01 4.853123e-01 -2.727000e+00 41 75 77
-4.241706e-01 -5.366386e-01 -2.712307e+00 102 165 98
-6.242543e-01 -5.517007e-01 -2.705902e+00 95 151 147
-7.652997e-01 -1.825104e-01 -2.532305e+00 150 141 159
-7.378961e-01 1.041054e-02 -2.479389e+00 183 158 143
-1.866927e-02 -8.411822e-01 -2.698323e+00 238 239 76
-1.380208e-01 -8.288930e-01 -2.696468e+00 226 232 74
-9.330423e-02 -2.484532e-01 -2.593457e+00 97 54 30
6.744536e-01 -3.383463e-01 -3.449779e+00 129 130 131
-1.630928e-01 -3.078099e-01 -2.576886e+00 208 204 203
-6.526660e-01 -1.626533e-01 -2.580186e+00 117 163 176
6.288069e-01 4.570145e-02 -3.080271e+00 68 116 51
-1.630665e-01 -9.517787e-01 -2.625263e+00 93 101 99
-1.452769e-01 2.820926e-01 -2.725246e+00 63 191 228
-4.858370e-01 -6.426982e-01 -2.717218e+00 31 59 39
-8.824590e-02 2.948521e-01 -2.746466e+00 230 107 151
-1.588447e-01 -1.003553e+00 -2.572718e+00 25 61 49
-2.030655e-01 -9.002248e-01 -2.686096e+00 22 59 37
-3.219424e-01 -8.786600e-01 -2.628955e+00 191 211 219
2.185897e+00 -1.276085e+00 -5.061630e+00 130 119 125
1.851505e+00 -1.156012e+00 -5.184665e+00 127 123 126
5.998794e-01 -6.046895e-01 -2.933038e+00 38 56 14
-1.301325e-01 -2.703896e-01 -2.581584e+00 105 58 34
2.025028e+00 -8.430617e-02 -6.242901e+00 96 92 97
6.478160e-01 3.538632e-01 -2.907705e+00 120 133 108
-1.530738e-01 4.040692e-01 -2.823490e+00 221 244 205
-5.749629e-01 -9.673864e-01 -2.532755e+00 35 44 45
-1.821031e-01 -9.701896e-01 -2.602059e+00 47 50 52
1.923159e+00 -1.573103e+00 -4.752152e+00 96 79 78
-1.685165e-01 -8.998085e-01 -2.677593e+00 37 59 36
1.953468e+00 -1.497198e+00 -4.832145e+00 145 129 133
2.136551e+00 -1.451634e+00 -4.883238e+00 79 62 72
1.738818e+00 -1.400457e+00 -4.924023e+00 145 134 139
1.879442e+00 -1.207861e+00 -5.132622e+00 98 89 87
2.072987e+00 -7.502329e-01 -5.600397e+00 86 76 79
1.957655e+00 -6.633068e-01 -5.687880e+00 86 72 71
1.957655e+00 -6.633068e-01 -5.687880e+00 86 72 71
1.970779e+00 -3.176272e-01 -5.988723e+00 103 104 106
8.693634e-01 -6.715182e-02 -3.193354e+00 110 112 98
7.047776e-01 2.703687e-01 -2.900300e+00 201 218 218
1.995064e+00 -1.658561e+00 -4.684607e+00 140 133 134
1.794745e+00 -1.624086e+00 -4.694983e+00 99 83 87
-4.153671e-01 -9.638134e-01 -2.599079e+00 33 70 49
1.678256e+00 -1.557822e+00 -4.752326e+00 106 90 93
1.771413e+00 -1.522987e+00 -4.784247e+00 90 79 80
-2.902647e-01 -8.923275e-01 -2.617338e+00 26 78 160
2.049734e+00 -1.464307e+00 -4.872802e+00 102 87 91
2.049734e+00 -1.464307e+00 -4.872802e+00 102 87 91
7.943080e-02 -8.436813e-01 -2.674878e+00 217 242 116
5.479524e-02 -8.415692e-01 -2.675034e+00 211 234 128
1.953117e+00 -1.219638e+00 -5.116648e+00 87 77 82
1.707855e+00 -1.005491e+00 -5.326720e+00 123 110 113
2.149603e+00 -1.007515e+00 -5.336350e+00 84 73 77
-6.896790e-02 -4.395203e-01 -2.657371e+00 210 211 210
1.873121e+00 -8.428198e-01 -5.504841e+00 126 113 116
2.107833e+00 -3.471716e-01 -6.005116e+00 105 98 106
-2.817892e-01 -5.602696e-02 -2.731865e+00 157 86 117
2.010410e+00 -1.996563e-03 -6.323162e+00 79 75 76
2.283483e+00 2.021973e-01 -6.531564e+00 53 46 47
2.592921e-01 4.847856e-01 -2.730584e+00 41 75 77
-6.102693e-02 -7.533424e-01 -2.715184e+00 221 198 54
-2.773689e-01 -7.037043e-01 -2.660497e+00 33 30 23
-5.389630e-01 2.855215e-01 -2.553080e+00 219 224 225
-6.626903e-01 -5.716077e-01 -2.679316e+00 181 180 146
-7.475960e-02 -5.762853e-01 -2.697617e+00 17 17 15
-4.580880e-01 -3.413963e-01 -2.648302e+00 100 180 114
7.187482e-01 2.087778e-01 -2.888350e+00 205 223 222
-6.428019e-01 -7.292574e-01 -2.766404e+00 67 146 165
-4.773022e-01 -6.813330e-01 -2.731517e+00 93 163 103
-4.762337e-01 -6.805220e-01 -2.735267e+00 93 163 103
2.975936e-01 -6.482201e-01 -2.887666e+00 115 180 91
6.530000e-01 -6.415923e-01 -2.916072e+00 113 182 93
-3.603974e-01 -2.653880e-01 -2.650051e+00 16 16 14
2.812934e-01 -8.740935e-01 -2.705794e+00 244 254 98
3.099969e-01 -8.169066e-01 -2.696371e+00 23 24 16
5.597658e-01 -5.654708e-01 -2.976497e+00 100 162 78
-4.439434e-01 -3.892196e-01 -2.662854e+00 88 174 118
-9.111112e-02 6.537408e-01 -2.739011e+00 153 149 141
-7.138997e-01 -8.790448e-01 -2.853728e+00 112 121 128
6.507571e-01 -7.524146e-01 -2.819533e+00 16 19 12
6.507571e-01 -7.524146e-01 -2.819533e+00 16 19 12
6.922430e-01 -7.461362e-03 -3.041411e+00 112 184 93
-7.424149e-01 6.340085e-01 -2.598926e+00 145 141 138
-3.822448e-01 -1.002811e+00 -2.580788e+00 28 51 35
-2.475312e-01 -8.600811e-01 -2.743670e+00 110 111 106
6.736989e-01 -8.439234e-01 -2.846482e+00 18 18 14
-4.460894e-01 -7.289293e-01 -2.757839e+00 30 41 25
-7.961030e-03 -4.857372e-01 -2.689411e+00 205 207 204
8.064865e-02 -4.728387e-01 -2.715792e+00 214 213 210
-4.224123e-01 -2.207884e-01 -2.627117e+00 100 114 107
8.346448e-01 -4.318687e-02 -3.177451e+00 66 55 44
8.681162e-01 -5.802572e-03 -3.163360e+00 175 182 174
5.753517e-01 1.238928e-01 -3.082174e+00 79 136 67
-2.746507e-01 4.740675e-01 -2.693783e+00 64 51 41
-2.691884e-01 5.651762e-01 -2.697567e+00 194 197 191
-2.617306e-01 6.122647e-01 -2.697103e+00 150 150 144
-1.292609e-01 -1.015791e+00 -2.572814e+00 181 206 205
-1.313434e-01 -9.301679e-01 -2.649265e+00 40 49 48
9.978033e-01 -8.884512e-01 -2.806521e+00 60 33 16
-1.942574e-01 -8.632615e-01 -2.711871e+00 40 34 10
-5.014932e-01 -7.533417e-01 -2.743345e+00 93 155 92
-1.572426e-01 -5.452305e-01 -2.665218e+00 208 183 42
-1.603552e-01 -4.924292e-01 -2.646012e+00 202 200 194
-1.644700e-01 -3.810459e-01 -2.608557e+00 205 207 200
-1.394737e-01 -3.431287e-01 -2.603550e+00 189 189 194
4.965400e-02 -3.047817e-01 -2.655302e+00 81 5 0
-5.586430e-01 -2.524808e-01 -2.573111e+00 99 120 97
-4.360036e-01 -2.554464e-01 -2.632011e+00 55 75 63
-5.088375e-01 1.098637e-01 -2.618293e+00 222 80 135
-8.870552e-01 2.508884e-01 -2.580488e+00 110 88 90
1.013123e+00 7.530314e-01 -3.038004e+00 203 205 210
-1.382806e-01 -5.108118e-01 -2.655381e+00 42 16 15
-4.690636e-02 -4.487367e-01 -2.666586e+00 28 28 33
-8.441434e-02 -4.192014e-01 -2.646487e+00 24 22 23
2.655159e-02 -4.181137e-01 -2.679169e+00 212 214 208
-7.365191e-02 -3.893712e-01 -2.639576e+00 25 25 24
-3.200877e-02 -3.835611e-01 -2.650905e+00 30 28 29
-3.223188e-02 -3.829277e-01 -2.651356e+00 30 28 29
-2.091858e-02 -3.328305e-01 -2.640434e+00 216 213 211
5.138304e-03 -3.253733e-01 -2.647131e+00 42 18 15
5.203275e-03 -3.251974e-01 -2.648540e+00 42 18 15
7.293052e-01 -1.977674e-01 -2.365365e+00 197 209 209
-1.558784e-02 6.906967e-02 -2.825962e+00 108 201 215
8.984159e-01 7.542671e-02 -3.107161e+00 75 68 52
7.102288e-01 2.944896e-01 -2.909982e+00 110 116 99
-7.998976e-01 3.346025e-01 -2.546300e+00 146 135 141
2.677737e-01 -8.131883e-01 -2.697923e+00 125 127 116
6.596237e-01 -8.126146e-01 -2.838066e+00 124 137 129
-7.052479e-01 -7.421106e-01 -2.736495e+00 172 73 97
-5.006643e-01 -6.107402e-01 -2.700422e+00 97 158 106
-8.459235e-02 -5.013448e-01 -2.670567e+00 210 215 208
8.564826e-02 -4.893328e-01 -2.722930e+00 209 214 207
1.112803e-01 -4.732074e-01 -2.726020e+00 56 9 5
1.092839e-01 -4.539229e-01 -2.722333e+00 55 6 1
5.913066e-02 -4.405725e-01 -2.702596e+00 26 25 28
6.020196e-02 -4.413723e-01 -2.701094e+00 26 25 28
1.041308e+00 -5.150089e-01 -3.268052e+00 24 23 20
-5.163240e-02 -3.964441e-01 -2.649847e+00 201 204 193
-1.120273e-01 -3.889707e-01 -2.628982e+00 27 30 34
-1.016595e-02 -3.888826e-01 -2.660144e+00 215 219 212
-9.923348e-03 -3.895697e-01 -2.662332e+00 215 219 212
1.053667e-01 -3.606733e-01 -2.693062e+00 57 6 1
-8.645044e-02 -3.412702e-01 -2.621989e+00 207 212 208
-8.660874e-02 -3.421561e-01 -2.620949e+00 207 212 208
-5.557553e-01 -3.357314e-01 -2.594628e+00 39 53 39
8.001725e-02 -3.404660e-01 -2.675641e+00 243 41 29
8.028564e-02 -3.387301e-01 -2.674423e+00 243 41 29
3.158238e-02 -3.245053e-01 -2.654918e+00 239 43 42
7.778391e-02 -3.161292e-01 -2.669053e+00 241 43 35
7.779670e-02 -3.154343e-01 -2.668376e+00 241 43 35
9.606110e-02 -2.993663e-01 -2.670497e+00 56 9 0
1.041932e+00 2.763948e-01 -3.155146e+00 52 52 49
2.429453e-01 4.208169e-01 -2.727817e+00 96 139 78
6.463970e-01 4.662933e-01 -2.872309e+00 211 225 223
-7.718858e-01 5.297639e-01 -2.580541e+00 42 24 20
-7.910903e-01 5.650128e-01 -2.603630e+00 99 80 78
-1.119426e-01 6.847762e-01 -2.709200e+00 141 140 135
2.684192e+00 2.033120e+00 -6.170147e+00 119 113 127
9.890849e-01 -1.102519e+00 -2.912848e+00 182 189 182
-1.092481e-01 -8.867523e-01 -2.705957e+00 61 38 1
2.114522e+00 -1.377215e+00 -4.951619e+00 83 79 81
-4.916281e-01 -7.834017e-01 -2.755487e+00 41 74 49
-6.851458e-01 -7.616963e-01 -2.744261e+00 154 30 59
-6.924174e-01 -6.890636e-01 -2.723024e+00 154 30 60
1.608473e+00 -1.173912e+00 -5.118726e+00 99 85 91
1.608473e+00 -1.173912e+00 -5.118726e+00 99 85 91
-5.115676e-01 -6.323620e-01 -2.703177e+00 107 164 113
8.386767e-02 -5.933775e-01 -2.756107e+00 153 121 119
-7.132971e-01 -4.966692e-01 -2.652108e+00 149 42 81
-4.159367e-02 -4.927703e-01 -2.681228e+00 21 20 16
-4.126342e-02 -4.924891e-01 -2.681156e+00 21 20 16
-8.778550e-02 -4.721110e-01 -2.662079e+00 208 209 200
3.977993e-02 -4.738837e-01 -2.704345e+00 19 16 16
3.977993e-02 -4.738837e-01 -2.704345e+00 19 16 16
-5.951038e-02 -4.663580e-01 -2.669677e+00 212 217 212
-5.942685e-02 -4.669413e-01 -2.668937e+00 212 217 212
-7.745312e-02 -4.584153e-01 -2.660716e+00 18 17 23
-7.745312e-02 -4.584153e-01 -2.660716e+00 18 17 23
1.743341e+00 -8.906448e-01 -5.429083e+00 122 118 123
2.387936e-02 -4.562530e-01 -2.693172e+00 214 214 207
-1.243032e-01 -4.476987e-01 -2.641394e+00 211 211 203
-1.666840e-02 -4.476138e-01 -2.677376e+00 17 21 24
-9.422215e-02 -4.426614e-01 -2.649472e+00 209 215 208
-9.422650e-02 -4.426472e-01 -2.649306e+00 209 215 208
-9.594791e-03 -4.320351e-01 -2.673891e+00 221 224 220
6.015618e-02 -4.221697e-01 -2.693335e+00 215 222 219
9.248023e-02 -4.161520e-01 -2.704374e+00 216 219 215
-9.705972e-02 -3.987057e-01 -2.636165e+00 213 220 213
2.880395e-02 -3.811704e-01 -2.672210e+00 224 227 223
2.899240e-02 -3.815601e-01 -2.671838e+00 224 227 223
-9.921115e-02 -3.716324e-01 -2.623406e+00 207 211 206
7.670470e-02 -3.611716e-01 -2.683719e+00 26 19 16
1.827124e+00 -7.341758e-01 -5.586040e+00 138 126 130
-3.166931e-02 -3.339911e-01 -2.635161e+00 206 214 208
2.718666e+00 -6.796193e-01 -5.778370e+00 58 57 58
7.345178e-01 5.528744e-02 -2.981573e+00 117 128 100
7.053516e-01 1.025762e-01 -2.949336e+00 163 176 162
7.137298e-01 1.314186e-01 -2.926645e+00 192 204 195
6.605399e-01 4.137191e-01 -2.879269e+00 171 183 169
-4.047750e-02 4.465124e-01 -2.737427e+00 153 141 132
-4.047750e-02 4.465124e-01 -2.737427e+00 153 141 132
2.121597e-01 4.435858e-01 -2.730890e+00 28 36 45
2.036127e-01 4.650150e-01 -2.734220e+00 163 177 185
-7.204689e-02 4.869463e-01 -2.716616e+00 123 118 115
-7.582496e-01 4.794862e-01 -2.567239e+00 58 36 32
-2.772084e-01 5.240412e-01 -2.683747e+00 88 80 76
-2.718478e-01 6.061391e-01 -2.692547e+00 136 133 125
-7.465653e-01 6.605603e-01 -2.592293e+00 136 122 126
-2.851316e-01 -9.604590e-01 -2.617428e+00 16 16 15
-3.349994e-01 -9.011781e-01 -2.620287e+00 153 184 220
1.166307e-01 -8.654930e-01 -2.673138e+00 169 189 85
1.429812e-01 -7.668698e-01 -2.833847e+00 215 188 78
-4.078607e-01 -6.969827e-01 -2.767469e+00 89 126 90
-4.960751e-01 -6.251588e-01 -2.707873e+00 23 70 32
-5.562628e-02 -6.143196e-01 -2.716556e+00 156 115 107
-3.253862e-02 -6.097627e-01 -2.722402e+00 167 128 128
-1.127074e-02 -6.063594e-01 -2.727322e+00 168 133 128
-4.826386e-01 -6.035669e-01 -2.705419e+00 28 60 28
4.524848e-02 -5.981724e-01 -2.744021e+00 165 133 134
1.040948e-01 -5.897576e-01 -2.763252e+00 178 140 137
-1.009071e-01 -4.840427e-01 -2.660971e+00 28 25 24
9.803342e-02 -4.887620e-01 -2.729108e+00 212 218 212
-2.753849e-02 -4.616404e-01 -2.677849e+00 213 215 211
-3.042023e-03 -4.575652e-01 -2.684622e+00 209 212 210
-2.989839e-03 -4.576766e-01 -2.684742e+00 209 212 210
-6.905134e-02 -4.405318e-01 -2.656754e+00 210 211 210
9.622473e-02 -4.423945e-01 -2.714042e+00 178 183 176
9.647650e-02 -4.426477e-01 -2.713889e+00 178 183 176
-3.057864e-02 -4.360478e-01 -2.667568e+00 217 216 214
4.309153e-02 -4.374946e-01 -2.692658e+00 25 16 23
4.303152e-02 -4.375026e-01 -2.692772e+00 25 16 23
3.018924e-03 -4.212342e-01 -2.675822e+00 62 63 59
2.780108e-03 -4.199089e-01 -2.676702e+00 62 63 59
-1.708030e-03 -3.419037e-01 -2.650285e+00 52 15 13
2.337523e-02 -3.418843e-01 -2.657423e+00 113 15 9
2.337523e-02 -3.418843e-01 -2.657423e+00 113 15 9
-1.460950e-01 -3.339705e-01 -2.599754e+00 19 18 19
-1.459708e-01 -3.338720e-01 -2.598585e+00 19 18 19
5.093795e-02 -3.370031e-01 -2.666603e+00 72 9 5
9.728195e-02 -3.291320e-01 -2.679855e+00 113 6 4
9.728195e-02 -3.291320e-01 -2.679855e+00 113 6 4
2.438992e+00 -6.931067e-01 -5.745470e+00 66 59 65
2.438992e+00 -6.931067e-01 -5.745470e+00 66 59 65
-1.204268e-02 -3.181453e-01 -2.635289e+00 216 213 209
4.562957e-01 -3.020812e-01 -2.574069e+00 106 179 86
1.868478e+00 -6.558056e-01 -5.668310e+00 125 112 114
4.960388e-02 -3.050203e-01 -2.656978e+00 100 7 0
-7.221665e-01 -2.985643e-01 -2.583378e+00 84 170 186
1.942556e+00 -6.303521e-01 -5.692762e+00 137 126 132
1.924722e+00 -5.324340e-01 -5.784305e+00 123 111 117
1.900061e+00 -5.075027e-01 -5.807134e+00 93 79 83
-3.700182e-01 -1.764982e-01 -2.637432e+00 193 208 198
8.471465e-01 -2.403272e-02 -3.183068e+00 75 75 60
4.741324e-01 2.315501e-02 -3.081180e+00 61 105 14
9.703632e-01 5.040453e-02 -3.139486e+00 213 218 213
8.283112e-01 1.414300e-01 -3.074384e+00 93 91 80
1.010564e+00 2.377115e-01 -3.126113e+00 177 172 176
6.235198e-01 3.615608e-01 -2.914543e+00 138 155 138
6.457748e-01 4.011938e-01 -2.883952e+00 210 224 216
6.330268e-01 4.123861e-01 -2.885155e+00 162 179 161
-8.335972e-01 4.348147e-01 -2.620829e+00 84 71 71
-7.397709e-01 4.836528e-01 -2.552508e+00 140 120 117
6.152052e-01 5.659706e-01 -2.783948e+00 129 146 128
6.032271e-01 5.955567e-01 -2.743256e+00 160 171 158
1.939847e+00 -5.609400e-01 -5.780338e+00 126 116 121
1.185108e-01 -6.025570e-01 -2.769977e+00 91 25 8
-1.071869e-03 -5.025940e-01 -2.699129e+00 214 215 216
-1.732641e-01 -4.658702e-01 -2.649898e+00 185 151 131
-3.647192e-01 3.660225e-01 -2.700465e+00 234 239 242
-3.662122e-01 3.701626e-01 -2.711527e+00 234 239 242
5.966391e-02 -8.995511e-01 -2.690229e+00 100 76 20
4.238337e-01 2.875007e-01 -2.748316e+00 101 4 0
-1.278268e-01 4.398411e-01 -2.758587e+00 107 95 79
-4.680829e-01 -4.866192e-01 -2.672634e+00 43 42 40
-6.159835e-01 -2.139016e-01 -2.577220e+00 18 20 17
1.082975e-01 6.284880e-02 -2.899541e+00 123 188 100
-1.237126e-01 5.535844e-01 -2.746175e+00 180 185 180
3.555698e-01 6.253955e-01 -2.843112e+00 39 35 26
-4.650884e-01 -1.015255e+00 -2.553619e+00 31 38 40
-2.164696e-01 5.116478e-01 -2.708965e+00 188 191 182
-4.456142e-01 -6.096651e-01 -2.723081e+00 41 35 32
-5.109544e-01 -2.803867e-01 -2.587887e+00 78 91 73
-1.609114e-01 -2.576000e-01 -2.580432e+00 190 117 74
-1.609114e-01 -2.576000e-01 -2.580432e+00 190 117 74
-1.694386e-01 3.740430e-01 -2.815962e+00 230 240 240
-7.673179e-03 -8.460136e-01 -2.660483e+00 232 234 77
-6.463134e-01 -1.644787e-01 -2.570742e+00 101 173 192
2.657915e-01 1.427636e-01 -2.776195e+00 32 58 20
-6.127701e-03 -9.866402e-01 -2.589986e+00 176 137 71
-6.127701e-03 -9.866402e-01 -2.589986e+00 176 137 71
-4.924707e-01 -5.546038e-01 -2.688454e+00 44 39 35
1.024426e+00 -5.534184e-01 -3.324084e+00 113 104 97
-4.368028e-01 -1.897289e-01 -2.609770e+00 89 100 88
-4.243083e-01 -1.008513e-01 -2.673421e+00 175 188 202
-9.586443e-01 1.074965e+00 -5.145813e+00 199 207 174
-9.586443e-01 1.074965e+00 -5.145813e+00 199 207 174
2.886134e-01 2.241478e-01 -2.789062e+00 88 0 0
-6.211272e-01 2.150941e-01 -2.552012e+00 228 233 239
-1.926589e-01 3.527350e-01 -2.877742e+00 230 130 162
5.198941e-01 -1.086732e+00 -2.587566e+00 144 147 135
2.122821e-01 -1.031561e+00 -2.568998e+00 41 48 46
5.716054e-01 -1.060736e+00 -2.618937e+00 148 151 140
-6.012796e-02 -9.837822e-01 -2.594642e+00 58 65 66
1.213966e-01 -9.587773e-01 -2.622201e+00 44 57 57
-2.453731e-02 -9.190188e-01 -2.670333e+00 100 111 99
-6.476459e-01 -3.566720e-01 -2.639193e+00 180 174 131
-6.655597e-01 -2.162420e-01 -2.586762e+00 204 110 127
-6.064877e-01 -1.528513e-01 -2.592785e+00 145 188 192
-5.169116e-01 -1.055673e-01 -2.625063e+00 180 82 112
-3.679657e-01 -8.794750e-02 -2.693225e+00 190 182 195
-3.980255e-01 -7.394990e-02 -2.674028e+00 202 101 131
9.085785e-01 4.285026e-02 -3.125125e+00 205 207 200
9.088578e-01 4.405786e-02 -3.126452e+00 205 207 200
6.452216e-01 3.503983e-01 -2.901774e+00 123 133 110
-6.798579e-01 3.124011e-01 -2.531176e+00 158 167 159
-1.781465e-01 5.431068e-01 -2.756300e+00 190 200 196
2.257071e-01 6.254481e-01 -2.761479e+00 169 180 173
-4.863250e-01 -1.108317e+00 -2.478156e+00 106 126 124
-4.840133e-01 -6.452869e-01 -2.717631e+00 50 69 45
-3.993514e-01 -5.542243e-01 -2.731121e+00 26 25 16
-1.675771e-01 -1.475839e-01 -2.734337e+00 197 198 182
4.261002e-01 2.564110e-01 -2.823714e+00 118 17 12
2.966995e-01 -1.135874e+00 -2.470152e+00 153 170 169
-1.083737e-01 -8.879430e-01 -2.700679e+00 41 33 3
2.643370e-02 -8.431320e-01 -2.681989e+00 61 64 22
2.742244e-02 -6.021641e-01 -2.738541e+00 166 120 114
3.316924e-02 -6.001774e-01 -2.743491e+00 166 120 114
-1.018108e-01 -4.842444e-01 -2.662180e+00 13 14 9
-1.262921e-01 -4.021342e-01 -2.626422e+00 218 220 217
-3.586876e-01 -2.725971e-01 -2.082900e+00 136 193 208
-6.422188e-01 3.401613e-01 -2.514203e+00 230 228 233
-6.684571e-01 -7.817022e-01 -2.755236e+00 200 76 115
1.333448e-01 -8.685714e-01 -2.671241e+00 184 202 85
3.223099e-01 -8.708706e-01 -2.698761e+00 27 45 0
7.993500e-02 -8.460567e-01 -2.677467e+00 217 235 127
-4.288763e-01 -7.071315e-01 -2.759876e+00 82 117 74
9.905822e-01 -7.351682e-01 -2.683545e+00 105 136 60
1.009327e+00 -7.322413e-01 -2.684577e+00 97 127 56
1.795845e-02 -5.923559e-01 -2.716149e+00 22 19 17
1.035212e+00 -5.308541e-01 -3.317994e+00 95 82 74
1.603760e-02 -3.927186e-01 -2.670849e+00 53 53 55
1.614750e-02 -3.925313e-01 -2.671145e+00 53 53 55
-1.386661e-01 -3.778015e-01 -2.613749e+00 213 214 214
-1.771439e-01 -2.943228e-01 -2.576846e+00 224 206 194
-1.770713e-01 -2.941564e-01 -2.575908e+00 224 206 194
9.463121e-01 6.937370e-02 -3.114574e+00 213 211 202
9.089773e-01 7.514631e-02 -3.071266e+00 209 212 207
6.894323e-01 4.065250e-01 -2.859272e+00 175 186 172
-4.453063e-01 -3.903384e-01 -2.665598e+00 88 174 118
-8.951693e-02 -4.993541e-01 -2.673658e+00 210 214 208
-5.362912e-01 1.060578e-01 -2.641058e+00 222 80 135
3.338830e-01 -3.896483e-02 -3.050733e+00 99 147 71
1.033649e+00 -9.299584e-01 -2.874712e+00 156 154 144
-5.177056e-02 -3.962244e-01 -2.649237e+00 201 204 193
-6.454257e-01 -3.552975e-01 -2.634364e+00 169 166 121
4.837045e-02 -4.545178e-01 -2.699805e+00 204 210 203
-6.978479e-01 -6.479946e-01 -2.706989e+00 149 36 61
8.544783e-03 -6.043746e-01 -2.733891e+00 186 146 143
-1.445546e-01 -3.654318e-01 -2.608926e+00 37 35 33
-1.451194e-01 -3.656231e-01 -2.610449e+00 37 35 33
9.261113e-02 -2.858587e-01 -2.665815e+00 249 41 38
-6.550527e-01 -2.893324e-01 -2.611416e+00 179 88 109
7.814705e-02 -3.333713e-01 -2.679509e+00 241 44 32
-1.401961e-01 -6.695520e-01 -2.685632e+00 212 186 39
-1.195191e-01 -2.988754e-01 -2.600770e+00 216 220 216
-4.712488e-01 3.128378e-01 -2.741500e+00 235 237 241
-1.643260e-01 -3.809955e-01 -2.609847e+00 210 210 206
-5.517828e-01 -3.079869e-01 -2.594968e+00 102 126 101
-6.357436e-01 -4.810796e-01 -2.681594e+00 119 170 165
-7.439991e-02 -3.870966e-01 -2.641247e+00 32 30 30
9.206601e-01 2.755868e-03 -3.155308e+00 136 129 115
9.206601e-01 2.755868e-03 -3.155308e+00 136 129 115
-2.571684e-01 2.923503e-01 -2.743571e+00 94 198 223
1.575741e-01 -8.950695e-01 -2.666414e+00 162 141 29
-8.700338e-02 -3.411381e-01 -2.621191e+00 213 214 213
-3.961762e-01 -7.283937e-01 -2.781056e+00 113 137 121
-3.955640e-01 -7.288179e-01 -2.781317e+00 113 137 121
-6.952114e-01 -6.646724e-01 -2.711785e+00 158 34 65
-6.954869e-01 -6.644791e-01 -2.712293e+00 158 34 65
-1.027763e-01 -4.850666e-01 -2.659971e+00 13 14 9
7.914428e-02 -4.467275e-01 -2.708473e+00 221 223 221
-5.553229e-02 -6.145814e-01 -2.716133e+00 159 118 119
5.138814e-02 -3.370797e-01 -2.666525e+00 87 16 7
-5.438226e-01 -4.714397e-01 -2.669235e+00 32 35 28
4.156074e-01 4.514171e-01 -2.784518e+00 134 210 113
2.159623e-01 -9.709824e-01 -2.622278e+00 18 61 38
8.097471e-02 -3.921756e-01 -2.693413e+00 145 149 149
-5.237660e-01 -3.222931e-01 -2.611172e+00 78 151 107
-7.072451e-02 -2.957129e-01 -2.611381e+00 209 212 207
6.407019e-01 5.055213e-01 -2.847164e+00 123 127 108
5.303544e-01 -1.056300e+00 -2.602715e+00 43 26 18
-4.525806e-01 -7.707958e-01 -2.764887e+00 70 148 99
-3.972417e-01 -7.544699e-01 -2.782235e+00 80 157 107
-2.472771e-01 3.759142e-01 -2.729756e+00 162 163 147
-2.472771e-01 3.759142e-01 -2.729756e+00 162 163 147
6.437027e-01 5.021391e-01 -2.847286e+00 119 124 105
-5.986245e-01 -1.101661e+00 -2.471494e+00 69 97 81
-5.714435e-01 -1.038481e+00 -2.468662e+00 11 12 13
-6.371404e-01 -4.833468e-01 -2.685654e+00 110 168 164
3.647958e-01 4.540464e-02 -3.029679e+00 102 85 15
5.038760e-01 1.486241e-01 -3.122456e+00 18 39 15
-4.955874e-01 9.154756e-02 -2.575439e+00 190 214 165
-5.520477e-01 1.786531e-01 -2.534351e+00 212 100 139
2.281012e-01 -1.070149e+00 -2.509302e+00 68 86 104
-2.991092e-01 -9.592613e-01 -2.605553e+00 59 88 79
8.797844e-01 -8.343767e-02 -3.199497e+00 120 121 106
8.795648e-01 -8.313890e-02 -3.201447e+00 120 121 106
9.087501e-01 -2.006871e-02 -3.169524e+00 203 206 200
6.692648e-01 4.601769e-01 -2.852261e+00 163 171 161
-7.211284e-01 -7.636022e-01 -2.737256e+00 34 21 29
-4.196233e-02 -6.273524e-01 -2.722452e+00 26 22 23
-3.158330e-02 -3.338619e-01 -2.635243e+00 211 216 210
9.176566e-03 -6.044283e-01 -2.733137e+00 185 146 146
-2.943264e-03 -4.577511e-01 -2.685347e+00 217 222 219
-3.468040e-02 -3.633294e-01 -2.641625e+00 219 218 212
9.174473e-01 4.883271e-01 -2.969454e+00 134 112 107
-3.593363e-01 -8.972138e-01 -2.620501e+00 115 152 195
-1.169471e-01 -6.208801e-01 -2.701031e+00 149 127 123
1.184679e-01 -5.884501e-01 -2.770323e+00 68 6 0
-9.683140e-02 -4.959279e-01 -2.665346e+00 202 208 204
-9.675439e-02 -4.959835e-01 -2.665397e+00 202 208 204
9.748844e-02 -4.655627e-01 -2.721481e+00 209 211 211
-7.215762e-02 -4.814049e-01 -2.666722e+00 8 11 15
-2.664732e-02 -4.488777e-01 -2.671917e+00 24 26 33
9.175730e-02 -4.310394e-01 -2.708512e+00 20 15 19
-4.945681e-02 -4.303435e-01 -2.659085e+00 210 213 206
8.986455e-02 -3.589038e-01 -2.683814e+00 37 25 25
-1.252535e-01 -3.480064e-01 -2.607893e+00 25 25 26
-1.628803e-03 -3.117186e-01 -2.641214e+00 47 50 54
1.925323e-02 -3.072978e-01 -2.648953e+00 57 8 7
-1.224676e-01 -2.554813e-01 -2.581469e+00 166 106 64
3.952824e-01 -1.977502e-01 -2.578001e+00 143 211 115
9.099171e-01 5.368623e-02 -3.121149e+00 195 194 186
9.469341e-01 8.895954e-02 -3.116018e+00 101 84 75
7.893861e-01 1.738770e-01 -3.079523e+00 178 178 173
8.447713e-01 1.941975e-01 -3.058658e+00 174 180 170
7.284106e-01 1.597235e-01 -2.899802e+00 201 213 209
7.059231e-01 3.926732e-01 -2.866349e+00 171 178 167
-6.708936e-01 -3.714090e-01 -2.629174e+00 202 62 107
-7.230409e-01 -1.834412e-01 -2.546742e+00 125 178 182
8.714333e-01 4.715535e-01 -2.994511e+00 128 105 98
9.405458e-01 6.672870e-02 -3.119724e+00 208 212 203
-1.589684e+00 3.166569e+00 -9.125789e+00 14 13 13
-7.273164e-01 3.102700e-02 -2.483717e+00 176 203 153
-1.021160e-01 -5.580086e-03 -2.806705e+00 75 201 237
1.109450e-01 -5.017671e-01 -2.737195e+00 49 6 7
1.109450e-01 -5.017671e-01 -2.737195e+00 49 6 7
-1.667543e-01 -1.488115e-01 -2.728001e+00 202 206 189
4.297812e-01 6.889550e-01 -2.737119e+00 144 147 135
2.705901e-01 -7.988552e-01 -2.765296e+00 19 19 15
-5.295310e-01 -3.236997e-01 -2.600414e+00 88 140 103
2.903193e-01 -8.716833e-01 -2.714712e+00 242 253 117
-4.281059e-01 4.645300e-01 -2.681613e+00 182 180 173
3.559946e-01 -9.599673e-01 -2.649830e+00 8 13 9
-5.004452e-01 -3.918763e-01 -2.636086e+00 59 58 53
-3.060862e-01 5.807042e-01 -2.676506e+00 189 194 188
3.454128e-01 -1.273519e+00 -2.519634e+00 17 16 13
-4.931151e-01 -5.573672e-01 -2.686405e+00 44 39 36
9.369804e-03 -4.383496e-01 -2.682302e+00 35 31 28
-3.322047e-02 -3.803729e-01 -2.652132e+00 35 34 33
-9.198012e-02 1.922707e-01 -2.747997e+00 211 229 195
-6.128311e-01 2.056520e-01 -2.609660e+00 103 178 205
-6.495515e-01 2.074456e-01 -2.559816e+00 59 48 41
-6.764937e-01 3.249762e-01 -2.564787e+00 159 167 161
-2.784493e-01 5.228658e-01 -2.698177e+00 88 76 64
-1.110436e-01 6.841999e-01 -2.712433e+00 140 135 124
-4.163981e-01 -9.612495e-01 -2.614945e+00 45 86 68
-9.302509e-03 -4.321405e-01 -2.676075e+00 216 216 212
-7.378614e-01 -1.792117e-01 -2.538603e+00 151 165 188
3.934900e-01 -2.280650e-01 -2.581041e+00 103 175 79
8.774326e-01 1.077471e-01 -3.076279e+00 194 202 189
7.440955e-01 2.518390e-01 -2.889046e+00 215 232 231
7.440955e-01 2.518390e-01 -2.889046e+00 215 232 231
6.311427e-01 3.136054e-01 -2.943784e+00 102 121 87
2.571386e-01 4.610466e-01 -2.718285e+00 221 244 252
-7.209076e-01 -9.690542e-01 -2.926593e+00 62 62 66
-7.505043e-01 -9.131297e-01 -2.879675e+00 74 68 72
-1.857270e-02 -6.348817e-01 -2.739114e+00 195 173 80
9.783786e-02 -4.641895e-01 -2.727428e+00 187 189 184
-7.365416e-01 -2.055866e-01 -2.549654e+00 99 182 202
8.414212e-01 1.376433e-01 -3.063243e+00 192 205 191
-8.416437e-01 2.340316e-01 -2.578336e+00 92 73 66
6.819824e-01 3.229832e-01 -2.902666e+00 145 152 137
-3.084469e-01 5.140866e-01 -2.702935e+00 142 140 136
2.535001e-01 4.803510e-01 -2.722598e+00 61 93 89
9.967204e-01 5.880503e-01 -2.953294e+00 26 21 32
-1.405266e-01 -3.445001e-01 -2.604598e+00 175 177 178
-6.422640e-01 -7.764000e-01 -2.768972e+00 96 164 175
8.137237e-02 -4.893622e-01 -2.724106e+00 212 214 209
9.933705e-02 -1.628845e-01 -2.682854e+00 33 37 20
-1.082582e-01 -6.371365e-01 -2.705773e+00 25 21 12
-4.091661e-02 -3.501119e-01 -2.634119e+00 46 47 49
-6.018753e-01 -2.286898e-01 -2.608829e+00 82 105 84
-1.434637e-01 -3.562447e-01 -2.605593e+00 22 23 26
-8.326862e-02 -7.433730e-01 -2.739512e+00 221 194 41
-1.249645e-01 5.607563e-01 -2.747755e+00 180 183 179
9.499142e-02 -1.261719e+00 -2.441649e+00 163 163 151
9.393707e-01 5.246225e-01 -3.007888e+00 110 78 66
1.280966e-01 5.507660e-01 -2.662009e+00 200 211 210
3.592454e-01 -1.280183e+00 -2.505722e+00 113 117 113
3.592454e-01 -1.280183e+00 -2.505722e+00 113 117 113
-5.012378e-01 -7.532921e-01 -2.744543e+00 98 158 99
5.314098e-01 3.067213e-01 -2.901176e+00 162 218 125
-9.478148e-02 6.416985e-01 -2.719338e+00 148 142 134
-5.889859e-02 -1.343827e+00 -2.392330e+00 92 89 85
-2.214881e-01 -1.325605e+00 -2.384517e+00 42 29 28
-2.514563e-01 -1.325248e+00 -2.376539e+00 42 25 26
-2.321456e-01 -1.308009e+00 -2.377189e+00 156 153 145
-2.825106e-01 -1.181284e+00 -2.452109e+00 120 118 113
-1.289942e-01 -1.186986e+00 -2.462123e+00 129 132 127
4.845756e-01 -1.187961e+00 -2.541037e+00 177 187 173
6.153627e-01 -1.168354e+00 -2.574322e+00 179 189 180
6.804850e-01 -9.448188e-01 -3.031208e+00 164 154 147
-6.637686e-01 -2.184991e-01 -2.585095e+00 206 106 127
3.344000e-01 -4.032315e-02 -3.049255e+00 108 155 76
3.638686e-01 -3.256788e-02 -3.051328e+00 25 53 9
9.138405e-01 8.720233e-02 -3.077161e+00 189 198 192
6.517568e-01 3.457659e-01 -2.906763e+00 138 148 123
-2.541182e-01 5.943377e-01 -2.684041e+00 151 145 142
7.085106e-02 -1.278843e+00 -2.432969e+00 148 135 126
-2.186956e-01 -1.131396e+00 -2.442373e+00 11 10 9
6.411751e-01 -1.167790e+00 -2.577979e+00 186 193 181
6.709278e-02 -8.559005e-01 -2.683120e+00 69 67 28
9.465771e-01 8.630717e-02 -3.110750e+00 96 72 55
9.465771e-01 8.630717e-02 -3.110750e+00 96 72 55
2.495452e-01 3.505950e-01 -2.706109e+00 63 84 41
-6.530220e-01 3.028359e-01 -2.521457e+00 171 162 159
9.228414e-02 -8.740266e-01 -2.673639e+00 24 24 6
7.556105e-02 -4.465162e-01 -2.706082e+00 220 220 219
7.556105e-02 -4.465162e-01 -2.706082e+00 220 220 219
9.106133e-01 7.882014e-02 -3.082349e+00 203 209 201
9.463546e-01 9.064676e-02 -3.090008e+00 194 200 194
1.546259e-01 5.560778e-01 -2.692868e+00 105 94 73
6.079267e-01 5.822301e-01 -2.767146e+00 147 152 134
-7.495919e-02 -8.607337e-01 -2.689946e+00 166 141 12
-2.380721e-02 -4.173360e-01 -2.663068e+00 36 38 37
-2.380721e-02 -4.173360e-01 -2.663068e+00 36 38 37
3.648550e-01 -6.347902e-02 -3.065238e+00 71 114 42
4.003323e-01 9.394067e-02 -2.751427e+00 54 84 28
7.202573e-01 1.516644e-01 -2.917509e+00 160 168 158
-3.593124e-02 -3.626788e-01 -2.643164e+00 218 204 202
-1.405335e-01 -3.929700e-01 -2.620763e+00 31 29 37
-1.552530e-01 -3.415843e-02 -2.789037e+00 211 232 243
-7.709001e-01 7.379342e-02 -2.488553e+00 190 177 157
2.377808e-01 6.787896e-01 -2.637609e+00 215 225 226
9.411110e-01 5.518884e-01 -3.034024e+00 128 92 80
-3.609213e-02 -1.286247e+00 -2.397383e+00 125 121 118
5.014639e-01 -1.107609e+00 -2.557371e+00 148 155 141
1.192833e-01 -6.034024e-01 -2.768607e+00 59 8 4
1.192833e-01 -6.034024e-01 -2.768607e+00 59 8 4
4.664170e-01 1.578830e-01 -3.095082e+00 191 226 82
4.664170e-01 1.578830e-01 -3.095082e+00 191 226 82
4.105496e-01 -1.147460e+00 -2.520037e+00 166 177 165
-1.763300e-02 -4.475372e-01 -2.677391e+00 33 33 39
-8.029798e-01 1.189296e-01 -2.430838e+00 204 121 138
1.048206e-01 -5.906051e-01 -2.762271e+00 183 143 139
-8.840792e-03 -4.330192e-01 -2.673788e+00 221 222 216
-7.172825e-01 -1.626891e-01 -2.551314e+00 134 169 180
8.454561e-01 4.396761e-01 -3.006457e+00 211 211 201
2.415681e-01 6.649457e-01 -2.662734e+00 200 216 211
-4.322771e-01 2.073768e-01 -2.576946e+00 217 110 140
-5.927769e-01 -1.311170e-01 -2.597873e+00 123 181 193
5.261031e-02 -3.206303e-01 -2.660622e+00 94 3 2
5.261031e-02 -3.206303e-01 -2.660622e+00 94 3 2
2.129815e-01 6.366756e-02 6.164816e-01 0 255 0
2.100853e-01 6.373153e-02 5.665655e-01 255 255 0
1.856494e-01 1.445108e+00 2.452968e-01 255 0 0
1.806471e-01 1.425274e+00 1.996726e-01 255 255 0
-3.394059e-01 -1.143525e+00 4.985849e-01 0 255 0
-3.355895e-01 -1.129273e+00 4.508111e-01 255 255 0
6.738886e-01 -8.918795e-01 1.814400e-01 255 0 0
6.631222e-01 -8.800607e-01 1.340649e-01 255 255 0
2.074312e+00 -9.581921e-01 1.282608e-01 0 255 0
2.046179e+00 -9.468434e-01 8.851481e-02 255 255 0
1.009246e+00 -2.106455e+00 -8.331187e-01 255 0 0
9.929051e-01 -2.074259e+00 -8.677078e-01 255 255 0
-1.446559e+00 -7.591858e-01 -5.495066e-02 0 255 0
-1.429381e+00 -7.492610e-01 -1.008464e-01 255 255 0
2.410566e-01 -2.193496e+00 -7.308812e-01 255 0 0
2.306295e-01 -2.162434e+00 -7.686492e-01 255 255 0
2.672065e+00 -2.180649e-01 -8.243202e-01 0 255 0
2.632625e+00 -2.182342e-01 -8.550525e-01 255 255 0
