ply
format ascii 1.0
element face 0
property list uchar int vertex_indices
element vertex 623
property float x
property float y
property float z
property uchar diffuse_red
property uchar diffuse_green
property uchar diffuse_blue
end_header
-1.348553e-01 -8.288425e-01 -2.694413e+00 226 232 74
-4.722633e-01 -4.835014e-01 -2.684586e+00 31 27 24
-4.270252e-01 -5.377852e-01 -2.715489e+00 102 165 98
-5.005312e-01 -3.957353e-01 -2.635626e+00 38 39 34
-1.586088e-01 -3.080890e-01 -2.581250e+00 208 204 203
-1.186719e-01 -3.008851e-01 -2.597845e+00 217 218 212
-9.637266e-02 -2.489833e-01 -2.592338e+00 97 54 30
6.874500e-01 3.690036e-01 -2.883805e+00 220 237 236
-1.153259e-01 -4.212047e-01 -2.636836e+00 209 211 205
-4.299144e-01 -2.522794e-01 -2.639885e+00 55 78 65
-7.196399e-01 -2.291118e-01 -2.565638e+00 108 171 180
-7.250653e-01 -1.822487e-01 -2.547935e+00 113 171 178
-4.846992e-01 -5.809740e-01 -2.697004e+00 90 155 95
-1.346693e-01 -4.689737e-01 -2.645444e+00 29 28 26
9.331353e-03 -4.378192e-01 -2.682263e+00 28 28 33
-8.418300e-02 -4.196081e-01 -2.646380e+00 24 22 23
-1.187684e-01 -3.661245e-01 -2.617275e+00 208 210 206
-5.647241e-02 -3.596241e-01 -2.636180e+00 208 210 202
-4.287270e-01 -9.994951e-01 -2.560876e+00 33 38 41
1.188279e-01 -6.027272e-01 -2.771002e+00 78 7 0
6.719948e-02 -5.976815e-01 -2.749704e+00 168 130 128
-7.318642e-01 -4.819989e-01 -2.643077e+00 131 186 191
-5.125273e-02 -5.089929e-01 -2.684441e+00 207 211 204
2.748175e-02 -4.972303e-01 -2.706930e+00 207 210 203
-1.075390e-01 -4.545676e-01 -2.649161e+00 30 29 35
-1.075390e-01 -4.545676e-01 -2.649161e+00 30 29 35
1.084677e-01 -4.275553e-01 -2.712662e+00 49 11 11
4.877232e-02 -4.033568e-01 -2.685715e+00 30 27 28
4.870896e-02 -4.034632e-01 -2.686286e+00 30 27 28
-1.406921e-01 -3.946437e-01 -2.619148e+00 29 28 32
-4.876014e-01 -3.332571e-01 -2.625756e+00 54 103 70
3.257944e-02 -3.249989e-01 -2.655339e+00 239 43 42
9.685679e-02 -3.001502e-01 -2.669099e+00 56 9 0
2.330425e-01 4.404392e-01 -2.728790e+00 189 216 227
-7.051977e-01 -6.174272e-01 -2.699104e+00 127 34 48
-1.300525e-01 -6.373351e-01 -2.701801e+00 34 24 4
-1.298692e-01 -6.374706e-01 -2.702389e+00 34 24 4
-7.151431e-01 -4.958695e-01 -2.652986e+00 149 42 81
-1.242760e-01 -4.482633e-01 -2.642016e+00 211 211 203
7.882947e-02 -4.289835e-01 -2.703772e+00 36 34 37
7.901070e-02 -4.288845e-01 -2.703410e+00 36 34 37
-1.263611e-01 -4.029745e-01 -2.626274e+00 214 217 209
6.533176e-02 -3.772307e-01 -2.682008e+00 225 225 223
9.145545e-02 -3.736254e-01 -2.690245e+00 224 225 217
1.326351e-02 -3.530497e-01 -2.657454e+00 227 37 31
4.156246e-02 -3.503508e-01 -2.665994e+00 234 35 31
-4.752110e-01 -2.169743e-01 -2.598768e+00 65 86 77
2.002248e+00 -1.459528e+00 -4.870812e+00 146 144 149
2.193759e+00 -1.447014e+00 -4.897853e+00 87 77 83
-3.112446e-01 -8.934699e-01 -2.626105e+00 38 84 154
-8.675352e-04 -5.027684e-01 -2.699809e+00 213 215 213
-3.702394e-01 -1.760656e-01 -2.637482e+00 193 208 198
1.044493e+00 2.387221e-01 -3.158869e+00 56 51 49
-5.125312e-02 -4.160186e-01 -2.654574e+00 162 162 160
-5.087475e-01 -3.170605e-01 -2.609748e+00 78 158 112
-1.620991e-01 -4.933321e-01 -2.651729e+00 202 200 194
1.039516e+00 2.407105e-01 -3.151241e+00 56 51 49
-7.741113e-01 -1.223778e-01 -2.507432e+00 189 118 137
1.880876e+00 -8.645671e-01 -5.456539e+00 123 111 116
1.939185e+00 -6.303262e-01 -5.692224e+00 137 126 132
2.603959e-01 4.674301e-01 -2.725706e+00 220 246 252
1.847872e+00 -1.067990e+00 -5.261126e+00 86 77 83
1.830082e+00 -9.307277e-01 -5.389789e+00 122 113 121
1.780598e+00 -7.532160e-01 -5.567291e+00 95 80 83
-3.107044e-01 -8.938265e-01 -2.624990e+00 38 84 154
5.510349e-02 -8.451625e-01 -2.679523e+00 211 234 128
1.873928e+00 -6.277990e-01 -5.702435e+00 90 69 71
2.592811e-01 4.874533e-01 -2.728250e+00 41 75 77
-4.248014e-01 -5.369401e-01 -2.712264e+00 102 165 98
-6.253055e-01 -5.520409e-01 -2.705659e+00 95 151 147
-7.667658e-01 -1.820763e-01 -2.531894e+00 150 141 159
-7.393763e-01 1.132578e-02 -2.479420e+00 183 158 143
-1.838103e-02 -8.421897e-01 -2.698372e+00 238 239 76
-1.379979e-01 -8.298742e-01 -2.696421e+00 226 232 74
-9.321590e-02 -2.481543e-01 -2.594000e+00 97 54 30
6.753425e-01 -3.382319e-01 -3.451189e+00 129 130 131
-1.631519e-01 -3.076511e-01 -2.577276e+00 208 204 203
-6.539002e-01 -1.621818e-01 -2.580260e+00 117 163 176
6.300698e-01 4.657887e-02 -3.082143e+00 68 116 51
-1.630461e-01 -9.530707e-01 -2.624989e+00 93 101 99
-1.454565e-01 2.836071e-01 -2.726372e+00 63 191 228
-4.866281e-01 -6.433675e-01 -2.717301e+00 31 59 39
-8.830767e-02 2.963893e-01 -2.747681e+00 230 107 151
-1.587833e-01 -1.005005e+00 -2.572346e+00 25 61 49
-2.031692e-01 -9.013635e-01 -2.685896e+00 22 59 37
-3.222935e-01 -8.797896e-01 -2.628624e+00 191 211 219
2.185437e+00 -1.276128e+00 -5.060368e+00 130 119 125
1.850435e+00 -1.155830e+00 -5.182595e+00 127 123 126
6.012904e-01 -6.051178e-01 -2.934048e+00 38 56 14
-1.301217e-01 -2.701416e-01 -2.582051e+00 105 58 34
2.021998e+00 -8.449115e-02 -6.239595e+00 96 92 97
6.493366e-01 3.555220e-01 -2.909836e+00 120 133 108
-1.533416e-01 4.058020e-01 -2.824830e+00 221 244 205
-5.758652e-01 -9.687965e-01 -2.532003e+00 35 44 45
-1.821135e-01 -9.715421e-01 -2.601731e+00 47 50 52
1.923228e+00 -1.573449e+00 -4.751016e+00 96 79 78
-1.685405e-01 -9.009522e-01 -2.677419e+00 37 59 36
1.953355e+00 -1.497426e+00 -4.830902e+00 145 129 133
2.136528e+00 -1.451887e+00 -4.882225e+00 79 62 72
1.738258e+00 -1.400458e+00 -4.922255e+00 145 134 139
1.878509e+00 -1.207721e+00 -5.130689e+00 98 89 87
2.071149e+00 -7.500156e-01 -5.597997e+00 86 76 79
1.955588e+00 -6.630943e-01 -5.685139e+00 86 72 71
1.955588e+00 -6.630943e-01 -5.685139e+00 86 72 71
1.968185e+00 -3.176071e-01 -5.985701e+00 103 104 106
8.710022e-01 -6.652150e-02 -3.195356e+00 110 112 98
7.064474e-01 2.718431e-01 -2.902389e+00 201 218 218
1.995428e+00 -1.659102e+00 -4.683720e+00 140 133 134
1.794810e+00 -1.624461e+00 -4.693741e+00 99 83 87
-4.159079e-01 -9.651562e-01 -2.598540e+00 33 70 49
1.678050e+00 -1.558030e+00 -4.750792e+00 106 90 93
1.771222e+00 -1.523189e+00 -4.782812e+00 90 79 80
-2.905389e-01 -8.934948e-01 -2.617012e+00 26 78 160
2.049627e+00 -1.464526e+00 -4.871644e+00 102 87 91
2.049627e+00 -1.464526e+00 -4.871644e+00 102 87 91
7.995607e-02 -8.447084e-01 -2.674991e+00 217 242 116
5.526407e-02 -8.425910e-01 -2.675128e+00 211 234 128
1.952282e+00 -1.219535e+00 -5.114876e+00 87 77 82
1.706409e+00 -1.005223e+00 -5.324194e+00 123 110 113
2.148408e+00 -1.007347e+00 -5.334530e+00 84 73 77
-6.882395e-02 -4.396153e-01 -2.657682e+00 210 211 210
1.871384e+00 -8.425626e-01 -5.502256e+00 126 113 116
2.105216e+00 -3.471336e-01 -6.002181e+00 105 98 106
-2.822271e-01 -5.531671e-02 -2.732546e+00 157 86 117
2.007250e+00 -2.266918e-03 -6.319743e+00 79 75 76
2.280042e+00 2.017317e-01 -6.528479e+00 53 46 47
2.600453e-01 4.868456e-01 -2.732287e+00 41 75 77
-6.087544e-02 -7.542125e-01 -2.715529e+00 221 198 54
-2.776932e-01 -7.044833e-01 -2.660627e+00 33 30 23
-5.398590e-01 2.870203e-01 -2.552839e+00 219 224 225
-6.638582e-01 -5.720403e-01 -2.679108e+00 181 180 146
-7.459861e-02 -5.767424e-01 -2.697940e+00 17 17 15
-4.588355e-01 -3.413101e-01 -2.648331e+00 100 180 114
7.203503e-01 2.100756e-01 -2.889473e+00 205 223 222
-6.440124e-01 -7.301121e-01 -2.766524e+00 67 146 165
-4.781039e-01 -6.820695e-01 -2.731607e+00 93 163 103
-4.770291e-01 -6.812188e-01 -2.735439e+00 93 163 103
2.984018e-01 -6.487650e-01 -2.888390e+00 115 180 91
6.545863e-01 -6.421556e-01 -2.917317e+00 113 182 93
-3.609163e-01 -2.651278e-01 -2.650149e+00 16 16 14
2.822534e-01 -8.753259e-01 -2.706571e+00 244 254 98
3.110263e-01 -8.179895e-01 -2.697147e+00 23 24 16
5.610332e-01 -5.658204e-01 -2.977544e+00 100 162 78
-4.446310e-01 -3.892662e-01 -2.662785e+00 88 174 118
-9.108946e-02 6.558855e-01 -2.739196e+00 153 149 141
-7.153120e-01 -8.802533e-01 -2.853971e+00 112 121 128
6.525038e-01 -7.533132e-01 -2.820845e+00 16 19 12
6.525038e-01 -7.533132e-01 -2.820845e+00 16 19 12
6.936008e-01 -6.673928e-03 -3.042548e+00 112 184 93
-7.437468e-01 6.362494e-01 -2.598522e+00 145 141 138
-3.828664e-01 -1.004496e+00 -2.580866e+00 28 51 35
-2.478062e-01 -8.612077e-01 -2.743890e+00 110 111 106
6.755056e-01 -8.450660e-01 -2.847929e+00 18 18 14
-4.468125e-01 -7.297374e-01 -2.758062e+00 30 41 25
-7.840646e-03 -4.855788e-01 -2.690041e+00 205 207 204
8.107594e-02 -4.729934e-01 -2.718054e+00 214 213 210
-4.230705e-01 -2.204287e-01 -2.627150e+00 100 114 107
8.361166e-01 -4.249548e-02 -3.178721e+00 66 55 44
8.696664e-01 -4.982232e-03 -3.164715e+00 175 182 174
5.763960e-01 1.248923e-01 -3.083181e+00 79 136 67
-2.749686e-01 4.759290e-01 -2.693995e+00 64 51 41
-2.695818e-01 5.672777e-01 -2.697934e+00 194 197 191
-2.620392e-01 6.143506e-01 -2.697132e+00 150 150 144
-1.292426e-01 -1.017521e+00 -2.573132e+00 181 206 205
-1.313393e-01 -9.315656e-01 -2.649580e+00 40 49 48
1.000707e+00 -8.898912e-01 -2.808700e+00 60 33 16
-1.944380e-01 -8.644283e-01 -2.712220e+00 40 34 10
-5.023730e-01 -7.542294e-01 -2.743473e+00 93 155 92
-1.570397e-01 -5.462106e-01 -2.665821e+00 208 183 42
-1.604066e-01 -4.926834e-01 -2.646232e+00 202 200 194
-1.646004e-01 -3.808258e-01 -2.608344e+00 205 207 200
-1.394570e-01 -3.430565e-01 -2.603628e+00 189 189 194
5.009113e-02 -3.046270e-01 -2.655540e+00 81 5 0
-5.596250e-01 -2.521856e-01 -2.572916e+00 99 120 97
-4.366793e-01 -2.551779e-01 -2.632027e+00 55 75 63
-5.098079e-01 1.108662e-01 -2.618129e+00 222 80 135
-8.887138e-01 2.522712e-01 -2.579887e+00 110 88 90
1.015106e+00 7.552931e-01 -3.039109e+00 203 205 210
-1.382854e-01 -5.111031e-01 -2.655643e+00 42 16 15
-4.667700e-02 -4.489016e-01 -2.666829e+00 28 28 33
-8.423107e-02 -4.194227e-01 -2.646717e+00 24 22 23
2.689245e-02 -4.181848e-01 -2.679544e+00 212 214 208
-7.351548e-02 -3.893961e-01 -2.639818e+00 25 25 24
-3.178590e-02 -3.835673e-01 -2.651197e+00 30 28 29
-3.178590e-02 -3.835673e-01 -2.651197e+00 30 28 29
-2.060898e-02 -3.326342e-01 -2.641036e+00 216 213 211
5.542919e-03 -3.252249e-01 -2.647954e+00 42 18 15
5.516344e-03 -3.250776e-01 -2.648801e+00 42 18 15
7.317504e-01 -1.972465e-01 -2.366150e+00 197 209 209
-1.542417e-02 7.004259e-02 -2.826541e+00 108 201 215
9.000979e-01 7.638193e-02 -3.108397e+00 75 68 52
7.116869e-01 2.957529e-01 -2.910289e+00 110 116 99
-8.015389e-01 3.363495e-01 -2.546353e+00 146 135 141
2.686983e-01 -8.142532e-01 -2.698642e+00 125 127 116
6.613915e-01 -8.136701e-01 -2.839452e+00 124 137 129
-7.066096e-01 -7.429365e-01 -2.736510e+00 172 73 97
-5.015150e-01 -6.112808e-01 -2.700513e+00 97 158 106
-8.450054e-02 -5.016085e-01 -2.670950e+00 210 215 208
8.615665e-02 -4.895891e-01 -2.723349e+00 209 214 207
1.118016e-01 -4.736469e-01 -2.725883e+00 56 9 5
1.098647e-01 -4.542667e-01 -2.723080e+00 55 6 1
5.960399e-02 -4.405890e-01 -2.703149e+00 26 25 28
6.067874e-02 -4.417047e-01 -2.701049e+00 26 25 28
1.043266e+00 -5.152227e-01 -3.269838e+00 24 23 20
-5.142221e-02 -3.964921e-01 -2.650057e+00 201 204 193
-1.119577e-01 -3.891100e-01 -2.628806e+00 27 30 34
-9.844565e-03 -3.889020e-01 -2.660366e+00 215 219 212
-9.431936e-03 -3.897914e-01 -2.663416e+00 215 219 212
1.058746e-01 -3.606127e-01 -2.693511e+00 57 6 1
-8.634638e-02 -3.411737e-01 -2.622271e+00 207 212 208
-8.647512e-02 -3.420825e-01 -2.621079e+00 207 212 208
-5.567152e-01 -3.356496e-01 -2.594497e+00 39 53 39
8.043866e-02 -3.401664e-01 -2.675794e+00 243 41 29
8.074378e-02 -3.386210e-01 -2.674802e+00 243 41 29
3.207640e-02 -3.245730e-01 -2.655738e+00 239 43 42
7.822725e-02 -3.159769e-01 -2.669488e+00 241 43 35
7.824706e-02 -3.152785e-01 -2.668814e+00 241 43 35
9.655206e-02 -2.991739e-01 -2.670883e+00 56 9 0
1.043825e+00 2.777321e-01 -3.156652e+00 52 52 49
2.436990e-01 4.225575e-01 -2.728240e+00 96 139 78
6.478474e-01 4.680926e-01 -2.873218e+00 211 225 223
-7.733015e-01 5.318043e-01 -2.580157e+00 42 24 20
-7.925400e-01 5.671051e-01 -2.603235e+00 99 80 78
-1.121146e-01 6.867416e-01 -2.708959e+00 141 140 135
2.679667e+00 2.031074e+00 -6.164565e+00 119 113 127
9.919091e-01 -1.104578e+00 -2.915340e+00 182 189 182
-1.092351e-01 -8.879684e-01 -2.706669e+00 61 38 1
2.114719e+00 -1.377679e+00 -4.951559e+00 83 79 81
-4.924607e-01 -7.843496e-01 -2.755702e+00 41 74 49
-6.863937e-01 -7.626050e-01 -2.744116e+00 154 30 59
-6.937520e-01 -6.898668e-01 -2.723102e+00 154 30 60
1.607745e+00 -1.173896e+00 -5.117444e+00 99 85 91
1.607745e+00 -1.173896e+00 -5.117444e+00 99 85 91
-5.124484e-01 -6.329620e-01 -2.703286e+00 107 164 113
8.430748e-02 -5.938048e-01 -2.756772e+00 153 121 119
-7.146816e-01 -4.969792e-01 -2.652059e+00 149 42 81
-4.135895e-02 -4.930364e-01 -2.681519e+00 21 20 16
-4.115323e-02 -4.925585e-01 -2.681216e+00 21 20 16
-8.769001e-02 -4.723110e-01 -2.662391e+00 208 209 200
4.014731e-02 -4.740672e-01 -2.704811e+00 19 16 16
4.014731e-02 -4.740672e-01 -2.704811e+00 19 16 16
-5.932110e-02 -4.665709e-01 -2.669913e+00 212 217 212
-5.926728e-02 -4.671259e-01 -2.669265e+00 212 217 212
-7.730561e-02 -4.586655e-01 -2.661053e+00 18 17 23
-7.730561e-02 -4.586655e-01 -2.661053e+00 18 17 23
1.741647e+00 -8.902861e-01 -5.425980e+00 122 118 123
2.421130e-02 -4.564008e-01 -2.693602e+00 214 214 207
-1.242802e-01 -4.478487e-01 -2.641618e+00 211 211 203
-1.636373e-02 -4.477324e-01 -2.677871e+00 17 21 24
-9.413518e-02 -4.428012e-01 -2.649742e+00 209 215 208
-9.413572e-02 -4.427864e-01 -2.649561e+00 209 215 208
-9.377420e-03 -4.319194e-01 -2.674134e+00 221 224 220
6.056630e-02 -4.222398e-01 -2.693778e+00 215 222 219
9.300044e-02 -4.162441e-01 -2.704748e+00 216 219 215
-9.693769e-02 -3.988566e-01 -2.636185e+00 213 220 213
2.925370e-02 -3.812606e-01 -2.672744e+00 224 227 223
2.943698e-02 -3.818041e-01 -2.672210e+00 224 227 223
-9.918121e-02 -3.717610e-01 -2.622952e+00 207 211 206
7.715393e-02 -3.611815e-01 -2.683775e+00 26 19 16
1.824909e+00 -7.337599e-01 -5.581992e+00 138 126 130
-3.143338e-02 -3.338954e-01 -2.635394e+00 206 214 208
2.715768e+00 -6.792136e-01 -5.774380e+00 58 57 58
7.360449e-01 5.623010e-02 -2.982724e+00 117 128 100
7.068544e-01 1.036115e-01 -2.950395e+00 163 176 162
7.152252e-01 1.323462e-01 -2.927018e+00 192 204 195
6.619520e-01 4.153580e-01 -2.880068e+00 171 183 169
-4.032807e-02 4.483320e-01 -2.737965e+00 153 141 132
-4.032807e-02 4.483320e-01 -2.737965e+00 153 141 132
2.128192e-01 4.453451e-01 -2.731288e+00 28 36 45
2.042806e-01 4.668800e-01 -2.734820e+00 163 177 185
-7.195937e-02 4.888767e-01 -2.717129e+00 123 118 115
-7.597949e-01 4.815815e-01 -2.567384e+00 58 36 32
-2.775865e-01 5.260000e-01 -2.683868e+00 88 80 76
-2.722135e-01 6.082524e-01 -2.692632e+00 136 133 125
-7.479059e-01 6.628616e-01 -2.591854e+00 136 122 126
-2.855193e-01 -9.619790e-01 -2.617645e+00 16 16 15
-3.354797e-01 -9.025207e-01 -2.620394e+00 153 184 220
1.172051e-01 -8.666940e-01 -2.673705e+00 169 189 85
1.435172e-01 -7.677110e-01 -2.834429e+00 215 188 78
-4.085312e-01 -6.977067e-01 -2.767795e+00 89 126 90
-4.969221e-01 -6.257456e-01 -2.707990e+00 23 70 32
-5.552018e-02 -6.147049e-01 -2.717218e+00 156 115 107
-3.234523e-02 -6.102471e-01 -2.722931e+00 167 128 128
-1.103343e-02 -6.068558e-01 -2.727834e+00 168 133 128
-4.834608e-01 -6.040699e-01 -2.705561e+00 28 60 28
4.560201e-02 -5.986419e-01 -2.744600e+00 165 133 134
1.046021e-01 -5.899721e-01 -2.764095e+00 178 140 137
-1.008345e-01 -4.842760e-01 -2.661247e+00 28 25 24
9.843199e-02 -4.886013e-01 -2.730320e+00 212 218 212
-2.725219e-02 -4.619231e-01 -2.678471e+00 213 215 211
-2.763430e-03 -4.577170e-01 -2.685032e+00 209 212 210
-2.715060e-03 -4.578339e-01 -2.685133e+00 209 212 210
-6.890833e-02 -4.406620e-01 -2.657041e+00 210 211 210
9.670737e-02 -4.424959e-01 -2.714576e+00 178 183 176
9.695727e-02 -4.427549e-01 -2.714406e+00 178 183 176
-3.035767e-02 -4.361649e-01 -2.667887e+00 217 216 214
4.339199e-02 -4.373992e-01 -2.693772e+00 25 16 23
4.336636e-02 -4.373904e-01 -2.693742e+00 25 16 23
3.328573e-03 -4.213310e-01 -2.675915e+00 62 63 59
3.069921e-03 -4.199807e-01 -2.677139e+00 62 63 59
-1.371808e-03 -3.418306e-01 -2.650487e+00 52 15 13
2.371453e-02 -3.417953e-01 -2.657749e+00 113 15 9
2.371453e-02 -3.417953e-01 -2.657749e+00 113 15 9
-1.460935e-01 -3.338780e-01 -2.599818e+00 19 18 19
-1.459677e-01 -3.337793e-01 -2.598654e+00 19 18 19
5.129863e-02 -3.370187e-01 -2.666017e+00 72 9 5
9.781710e-02 -3.290307e-01 -2.680155e+00 113 6 4
9.781710e-02 -3.290307e-01 -2.680155e+00 113 6 4
2.436130e+00 -6.926542e-01 -5.741268e+00 66 59 65
2.436130e+00 -6.926542e-01 -5.741268e+00 66 59 65
-1.177879e-02 -3.179913e-01 -2.635642e+00 216 213 209
4.577187e-01 -3.018747e-01 -2.574806e+00 106 179 86
1.865981e+00 -6.553864e-01 -5.663747e+00 125 112 114
4.999310e-02 -3.048332e-01 -2.657397e+00 100 7 0
-7.235652e-01 -2.983852e-01 -2.583141e+00 84 170 186
1.940006e+00 -6.299525e-01 -5.688268e+00 137 126 132
1.921807e+00 -5.320497e-01 -5.778979e+00 123 111 117
1.897049e+00 -5.071243e-01 -5.801522e+00 93 79 83
-3.705457e-01 -1.760468e-01 -2.637505e+00 193 208 198
8.486330e-01 -2.330673e-02 -3.184351e+00 75 75 60
4.749942e-01 2.395982e-02 -3.082081e+00 61 105 14
9.722088e-01 5.131587e-02 -3.141021e+00 213 218 213
8.299204e-01 1.425265e-01 -3.075692e+00 93 91 80
1.012470e+00 2.389743e-01 -3.127550e+00 177 172 176
6.248529e-01 3.631284e-01 -2.915555e+00 138 155 138
6.471761e-01 4.028222e-01 -2.884782e+00 210 224 216
6.343976e-01 4.140326e-01 -2.885973e+00 162 179 161
-8.351523e-01 4.366160e-01 -2.620493e+00 84 71 71
-7.412930e-01 4.857226e-01 -2.552450e+00 140 120 117
6.166019e-01 5.679601e-01 -2.784537e+00 129 146 128
6.047159e-01 5.977350e-01 -2.743997e+00 160 171 158
1.937298e+00 -5.604537e-01 -5.776496e+00 126 116 121
1.190138e-01 -6.030458e-01 -2.770606e+00 91 25 8
-8.005812e-04 -5.028429e-01 -2.699577e+00 214 215 216
-1.733581e-01 -4.660718e-01 -2.650101e+00 185 151 131
-3.650750e-01 3.669695e-01 -2.699411e+00 234 239 242
-3.666934e-01 3.716079e-01 -2.711343e+00 234 239 242
6.007936e-02 -9.008303e-01 -2.690791e+00 100 76 20
4.249182e-01 2.888784e-01 -2.748820e+00 101 4 0
-1.278573e-01 4.413835e-01 -2.758569e+00 107 95 79
-4.688485e-01 -4.868849e-01 -2.672668e+00 43 42 40
-6.170533e-01 -2.135862e-01 -2.576932e+00 18 20 17
1.086239e-01 6.367834e-02 -2.899933e+00 123 188 100
-1.237299e-01 5.553459e-01 -2.746095e+00 180 185 180
3.564064e-01 6.273010e-01 -2.843460e+00 39 35 26
-4.659539e-01 -1.017026e+00 -2.553565e+00 31 38 40
-2.167767e-01 5.135262e-01 -2.709103e+00 188 191 182
-4.463576e-01 -6.101870e-01 -2.723292e+00 41 35 32
-5.118342e-01 -2.801458e-01 -2.587878e+00 78 91 73
-1.609525e-01 -2.573481e-01 -2.580520e+00 190 117 74
-1.609525e-01 -2.573481e-01 -2.580520e+00 190 117 74
-1.695682e-01 3.754180e-01 -2.815976e+00 230 240 240
-7.405498e-03 -8.471625e-01 -2.660945e+00 232 234 77
-6.473961e-01 -1.641637e-01 -2.570181e+00 101 173 192
2.665168e-01 1.438108e-01 -2.776632e+00 32 58 20
-5.812493e-03 -9.882583e-01 -2.590374e+00 176 137 71
-5.812493e-03 -9.882583e-01 -2.590374e+00 176 137 71
-4.933056e-01 -5.550174e-01 -2.688538e+00 44 39 35
1.026256e+00 -5.536399e-01 -3.325776e+00 113 104 97
-4.374150e-01 -1.894472e-01 -2.609411e+00 89 100 88
-4.249286e-01 -1.002901e-01 -2.673360e+00 175 188 202
-9.588272e-01 1.073836e+00 -5.139713e+00 199 207 174
-9.588272e-01 1.073836e+00 -5.139713e+00 199 207 174
2.893427e-01 2.251165e-01 -2.788973e+00 88 0 0
-6.223652e-01 2.162787e-01 -2.551583e+00 228 233 239
-1.928508e-01 3.540253e-01 -2.877774e+00 230 130 162
5.218813e-01 -1.088940e+00 -2.589920e+00 144 147 135
2.131945e-01 -1.033360e+00 -2.569531e+00 41 48 46
5.737260e-01 -1.062818e+00 -2.621449e+00 148 151 140
-5.995345e-02 -9.853861e-01 -2.594992e+00 58 65 66
1.220171e-01 -9.602903e-01 -2.622733e+00 44 57 57
-2.431329e-02 -9.203664e-01 -2.670804e+00 100 111 99
-6.487984e-01 -3.566723e-01 -2.638988e+00 180 174 131
-6.668471e-01 -2.159200e-01 -2.586530e+00 204 110 127
-6.075245e-01 -1.524009e-01 -2.592509e+00 145 188 192
-5.176723e-01 -1.051555e-01 -2.624551e+00 180 82 112
-3.684681e-01 -8.736108e-02 -2.693219e+00 190 182 195
-3.985879e-01 -7.333416e-02 -2.673976e+00 202 101 131
9.103239e-01 4.378826e-02 -3.126639e+00 205 207 200
9.105662e-01 4.502000e-02 -3.127911e+00 205 207 200
6.466065e-01 3.518639e-01 -2.902575e+00 123 133 110
-6.810461e-01 3.138697e-01 -2.530587e+00 158 167 159
-1.781825e-01 5.441672e-01 -2.755102e+00 190 200 196
2.263606e-01 6.274041e-01 -2.761664e+00 169 180 173
-4.872690e-01 -1.110471e+00 -2.477935e+00 106 126 124
-4.848286e-01 -6.459016e-01 -2.717766e+00 50 69 45
-3.999793e-01 -5.546157e-01 -2.731296e+00 26 25 16
-1.676848e-01 -1.471093e-01 -2.734534e+00 197 198 182
4.271057e-01 2.576779e-01 -2.824276e+00 118 17 12
2.979606e-01 -1.138141e+00 -2.470587e+00 153 170 169
-1.083658e-01 -8.891780e-01 -2.701121e+00 41 33 3
2.676060e-02 -8.442251e-01 -2.682987e+00 61 64 22
2.772795e-02 -6.026261e-01 -2.739134e+00 166 120 114
2.953807e-02 -6.028872e-01 -2.722454e+00 166 120 114
-1.017208e-01 -4.845142e-01 -2.662227e+00 13 14 9
-1.262796e-01 -4.022033e-01 -2.626650e+00 218 220 217
-3.591012e-01 -2.724498e-01 -2.081841e+00 136 193 208
-6.433202e-01 3.416982e-01 -2.513603e+00 230 228 233
-6.697699e-01 -7.826716e-01 -2.755341e+00 200 76 115
1.339501e-01 -8.697825e-01 -2.671829e+00 184 202 85
3.233656e-01 -8.720898e-01 -2.699524e+00 27 45 0
8.040350e-02 -8.471967e-01 -2.678017e+00 217 235 127
-4.293616e-01 -7.082630e-01 -2.758994e+00 82 117 74
9.935559e-01 -7.361573e-01 -2.684835e+00 105 136 60
1.012361e+00 -7.332260e-01 -2.685886e+00 97 127 56
1.786864e-02 -5.918821e-01 -2.728118e+00 22 19 17
1.037071e+00 -5.310333e-01 -3.319694e+00 95 82 74
1.635651e-02 -3.927450e-01 -2.671177e+00 53 53 55
1.646361e-02 -3.925632e-01 -2.671461e+00 53 53 55
-1.386422e-01 -3.778180e-01 -2.613844e+00 213 214 214
-1.772160e-01 -2.941964e-01 -2.576867e+00 224 206 194
-1.771480e-01 -2.939867e-01 -2.575990e+00 224 206 194
9.481148e-01 7.032398e-02 -3.115936e+00 213 211 202
9.107593e-01 7.611085e-02 -3.072564e+00 209 212 207
6.909818e-01 4.081554e-01 -2.860088e+00 175 186 172
-4.459854e-01 -3.903658e-01 -2.665470e+00 88 174 118
-8.941110e-02 -4.996102e-01 -2.674011e+00 210 214 208
-5.371894e-01 1.069472e-01 -2.640541e+00 222 80 135
3.345550e-01 -3.825746e-02 -3.051747e+00 99 147 71
1.037076e+00 -9.317764e-01 -2.878918e+00 156 154 144
-5.117516e-02 -3.971544e-01 -2.649676e+00 201 204 193
-6.465566e-01 -3.552772e-01 -2.634064e+00 169 166 121
4.877279e-02 -4.546590e-01 -2.700300e+00 204 210 203
-6.991347e-01 -6.486601e-01 -2.706970e+00 149 36 61
8.867239e-03 -6.048319e-01 -2.734442e+00 186 146 143
-1.445639e-01 -3.653802e-01 -2.609043e+00 37 35 33
-1.451316e-01 -3.655731e-01 -2.610573e+00 37 35 33
9.309780e-02 -2.856103e-01 -2.666176e+00 249 41 38
-6.562573e-01 -2.890862e-01 -2.611227e+00 179 88 109
7.856491e-02 -3.331503e-01 -2.679989e+00 241 44 32
-1.402299e-01 -6.701926e-01 -2.686046e+00 212 186 39
-1.194671e-01 -2.987287e-01 -2.600816e+00 216 220 216
-4.719026e-01 3.135794e-01 -2.740371e+00 235 237 241
-1.643758e-01 -3.810240e-01 -2.609922e+00 210 210 206
-5.526896e-01 -3.079014e-01 -2.594708e+00 102 126 101
-6.369445e-01 -4.813307e-01 -2.681547e+00 119 170 165
-7.421938e-02 -3.871279e-01 -2.641405e+00 32 30 30
9.224337e-01 3.675593e-03 -3.156959e+00 136 129 115
9.224337e-01 3.675593e-03 -3.156959e+00 136 129 115
-2.574639e-01 2.931195e-01 -2.742653e+00 94 198 223
1.583532e-01 -8.963331e-01 -2.667721e+00 162 141 29
-8.693012e-02 -3.409681e-01 -2.621600e+00 213 214 213
-3.967770e-01 -7.291771e-01 -2.781252e+00 113 137 121
-3.962663e-01 -7.294932e-01 -2.781797e+00 113 137 121
-6.965589e-01 -6.653463e-01 -2.711816e+00 158 34 65
-6.968497e-01 -6.650765e-01 -2.712365e+00 158 34 65
-1.028663e-01 -4.852132e-01 -2.659320e+00 13 14 9
7.958142e-02 -4.468253e-01 -2.709009e+00 221 223 221
-5.539350e-02 -6.150365e-01 -2.716737e+00 159 118 119
5.159123e-02 -3.375449e-01 -2.664581e+00 87 16 7
-5.448097e-01 -4.716251e-01 -2.669260e+00 32 35 28
4.167208e-01 4.525778e-01 -2.783966e+00 134 210 113
2.166052e-01 -9.726454e-01 -2.624331e+00 18 61 38
8.142489e-02 -3.921971e-01 -2.693830e+00 145 149 149
-5.246233e-01 -3.222054e-01 -2.610985e+00 78 151 107
-7.055354e-02 -2.955617e-01 -2.611475e+00 209 212 207
6.420367e-01 5.071834e-01 -2.847642e+00 123 127 108
5.320232e-01 -1.058514e+00 -2.605970e+00 43 26 18
-4.534191e-01 -7.715577e-01 -2.765246e+00 70 148 99
-3.979374e-01 -7.551758e-01 -2.782611e+00 80 157 107
-2.470190e-01 3.765141e-01 -2.728082e+00 162 163 147
-2.470190e-01 3.765141e-01 -2.728082e+00 162 163 147
6.451697e-01 5.035779e-01 -2.847200e+00 119 124 105
-6.002885e-01 -1.103902e+00 -2.472010e+00 69 97 81
-5.729882e-01 -1.040491e+00 -2.469158e+00 11 12 13
-6.383238e-01 -4.835658e-01 -2.685631e+00 110 168 164
3.660486e-01 4.514741e-02 -3.027314e+00 102 85 15
5.047740e-01 1.491495e-01 -3.121715e+00 18 39 15
-4.963458e-01 9.249090e-02 -2.575035e+00 190 214 165
-5.529358e-01 1.797992e-01 -2.533823e+00 212 100 139
2.288008e-01 -1.072411e+00 -2.511612e+00 68 86 104
-2.997993e-01 -9.607849e-01 -2.606470e+00 59 88 79
8.813991e-01 -8.272592e-02 -3.201193e+00 120 121 106
8.810786e-01 -8.246667e-02 -3.202405e+00 120 121 106
9.104463e-01 -1.925586e-02 -3.171136e+00 203 206 200
6.707770e-01 4.616160e-01 -2.852348e+00 163 171 161
-7.226453e-01 -7.643760e-01 -2.737441e+00 34 21 29
-4.218708e-02 -6.274313e-01 -2.724158e+00 26 22 23
-3.133053e-02 -3.337993e-01 -2.635432e+00 211 216 210
9.366743e-03 -6.048490e-01 -2.733934e+00 185 146 146
-2.664956e-03 -4.579047e-01 -2.685744e+00 217 222 219
-3.448209e-02 -3.633067e-01 -2.641955e+00 219 218 212
9.193630e-01 4.900279e-01 -2.970139e+00 134 112 107
-3.601284e-01 -8.985114e-01 -2.621229e+00 115 152 195
-1.169294e-01 -6.214147e-01 -2.701431e+00 149 127 123
1.189751e-01 -5.888800e-01 -2.771008e+00 68 6 0
-9.675001e-02 -4.961911e-01 -2.665627e+00 202 208 204
-9.667744e-02 -4.962447e-01 -2.665688e+00 202 208 204
9.795825e-02 -4.657303e-01 -2.722009e+00 209 211 211
-7.202165e-02 -4.816345e-01 -2.667015e+00 8 11 15
-2.641807e-02 -4.490310e-01 -2.672246e+00 24 26 33
9.222219e-02 -4.311379e-01 -2.708989e+00 20 15 19
-4.926649e-02 -4.304637e-01 -2.659352e+00 210 213 206
9.029864e-02 -3.588382e-01 -2.684349e+00 37 25 25
-1.252013e-01 -3.479682e-01 -2.607969e+00 25 25 26
-1.324616e-03 -3.115914e-01 -2.641415e+00 47 50 54
1.959837e-02 -3.071592e-01 -2.649180e+00 57 8 7
-1.223920e-01 -2.552551e-01 -2.581447e+00 166 106 64
3.964622e-01 -1.972297e-01 -2.579089e+00 143 211 115
9.116138e-01 5.462285e-02 -3.122227e+00 195 194 186
9.490672e-01 8.797066e-02 -3.110632e+00 101 84 75
7.908737e-01 1.750148e-01 -3.080790e+00 178 178 173
8.464019e-01 1.953744e-01 -3.059913e+00 174 180 170
7.299899e-01 1.608322e-01 -2.900738e+00 201 213 209
7.074412e-01 3.942309e-01 -2.867122e+00 171 178 167
-6.720676e-01 -3.714764e-01 -2.628892e+00 202 62 107
-7.240922e-01 -1.833567e-01 -2.545966e+00 125 178 182
8.729863e-01 4.734248e-01 -2.995666e+00 128 105 98
9.423284e-01 6.782344e-02 -3.121278e+00 208 212 203
-1.591597e+00 3.160455e+00 -9.119336e+00 14 13 13
-7.284142e-01 3.328646e-02 -2.487072e+00 176 203 153
-1.021137e-01 -4.799668e-03 -2.807222e+00 75 201 237
1.114629e-01 -5.020222e-01 -2.737751e+00 49 6 7
1.114629e-01 -5.020222e-01 -2.737751e+00 49 6 7
-1.668530e-01 -1.483005e-01 -2.728340e+00 202 206 189
4.308462e-01 6.912282e-01 -2.737309e+00 144 147 135
2.711004e-01 -8.000011e-01 -2.764324e+00 19 19 15
-5.304186e-01 -3.235269e-01 -2.600569e+00 88 140 103
2.909041e-01 -8.730218e-01 -2.713578e+00 242 253 117
-4.287480e-01 4.666174e-01 -2.682333e+00 182 180 173
3.567169e-01 -9.615663e-01 -2.648352e+00 8 13 9
-5.012695e-01 -3.918873e-01 -2.636244e+00 59 58 53
-3.064332e-01 5.830918e-01 -2.677274e+00 189 194 188
3.461353e-01 -1.276057e+00 -2.517266e+00 17 16 13
-4.939503e-01 -5.578145e-01 -2.686462e+00 44 39 36
9.598075e-03 -4.385614e-01 -2.682135e+00 35 31 28
-3.123842e-02 -3.793838e-01 -2.657320e+00 35 34 33
-9.190902e-02 1.935325e-01 -2.748543e+00 211 229 195
-6.139260e-01 2.071467e-01 -2.610106e+00 103 178 205
-6.507516e-01 2.089700e-01 -2.560125e+00 59 48 41
-6.777681e-01 3.268314e-01 -2.565198e+00 159 167 161
-2.787332e-01 5.250738e-01 -2.698965e+00 88 76 64
-1.110863e-01 6.862210e-01 -2.712293e+00 140 135 124
-4.171029e-01 -9.628038e-01 -2.614453e+00 45 86 68
-9.103861e-03 -4.323315e-01 -2.675928e+00 216 216 212
-7.392998e-01 -1.787108e-01 -2.538314e+00 151 165 188
3.945021e-01 -2.278743e-01 -2.580499e+00 103 175 79
8.791839e-01 1.088557e-01 -3.077726e+00 194 202 189
7.453497e-01 2.527282e-01 -2.888730e+00 215 232 231
7.453497e-01 2.527282e-01 -2.888730e+00 215 232 231
6.324445e-01 3.149985e-01 -2.944662e+00 102 121 87
2.579269e-01 4.628548e-01 -2.718665e+00 221 244 252
-7.223713e-01 -9.704158e-01 -2.927120e+00 62 62 66
-7.520496e-01 -9.145662e-01 -2.879662e+00 74 68 72
-1.846047e-02 -6.355702e-01 -2.738798e+00 195 173 80
9.818631e-02 -4.644952e-01 -2.727174e+00 187 189 184
-7.379671e-01 -2.051099e-01 -2.549709e+00 99 182 202
8.430992e-01 1.387941e-01 -3.064617e+00 192 205 191
-8.433643e-01 2.356250e-01 -2.578626e+00 92 73 66
6.831697e-01 3.240501e-01 -2.902538e+00 145 152 137
-3.088023e-01 5.162722e-01 -2.703730e+00 142 140 136
2.542777e-01 4.821992e-01 -2.722988e+00 61 93 89
9.983004e-01 5.894366e-01 -2.952887e+00 26 21 32
-1.405081e-01 -3.444565e-01 -2.604643e+00 175 177 178
-6.434868e-01 -7.774138e-01 -2.769034e+00 96 164 175
8.181381e-02 -4.895996e-01 -2.724596e+00 212 214 209
9.984625e-02 -1.624413e-01 -2.682997e+00 33 37 20
-1.082256e-01 -6.377206e-01 -2.706166e+00 25 21 12
-4.066330e-02 -3.500573e-01 -2.634170e+00 46 47 49
-6.030962e-01 -2.284167e-01 -2.608589e+00 82 105 84
-1.437894e-01 -3.566065e-01 -2.604322e+00 22 23 26
-8.318141e-02 -7.441594e-01 -2.740097e+00 221 194 41
-1.250918e-01 5.624540e-01 -2.747654e+00 180 183 179
9.584529e-02 -1.264019e+00 -2.441844e+00 163 163 151
9.411045e-01 5.264233e-01 -3.009024e+00 110 78 66
1.285454e-01 5.524561e-01 -2.661897e+00 200 211 210
3.607855e-01 -1.282552e+00 -2.506163e+00 113 117 113
3.607855e-01 -1.282552e+00 -2.506163e+00 113 117 113
-5.021170e-01 -7.541355e-01 -2.744835e+00 98 158 99
5.325299e-01 3.079866e-01 -2.901830e+00 162 218 125
-9.483678e-02 6.435232e-01 -2.719164e+00 148 142 134
-5.842878e-02 -1.346370e+00 -2.392367e+00 92 89 85
-2.214727e-01 -1.328083e+00 -2.384448e+00 42 29 28
-2.515203e-01 -1.327727e+00 -2.376434e+00 42 25 26
-2.321554e-01 -1.310441e+00 -2.377086e+00 156 153 145
-2.827023e-01 -1.183321e+00 -2.452102e+00 120 118 113
-1.287824e-01 -1.189038e+00 -2.462234e+00 129 132 127
4.863917e-01 -1.190078e+00 -2.541566e+00 177 187 173
6.174720e-01 -1.170400e+00 -2.575001e+00 179 189 180
6.822145e-01 -9.460220e-01 -3.032904e+00 164 154 147
-6.648877e-01 -2.182617e-01 -2.584673e+00 206 106 127
3.350604e-01 -3.958171e-02 -3.050308e+00 108 155 76
3.645881e-01 -3.181486e-02 -3.052394e+00 25 53 9
9.156359e-01 8.817522e-02 -3.078539e+00 189 198 192
6.531014e-01 3.471086e-01 -2.907489e+00 138 148 123
-2.544593e-01 5.960891e-01 -2.683732e+00 151 145 142
7.164714e-02 -1.281193e+00 -2.433139e+00 148 135 126
-2.187125e-01 -1.133304e+00 -2.442354e+00 11 10 9
6.433442e-01 -1.169828e+00 -2.578689e+00 186 193 181
6.760777e-02 -8.569891e-01 -2.683719e+00 69 67 28
9.484032e-01 8.730433e-02 -3.112229e+00 96 72 55
9.484032e-01 8.730433e-02 -3.112229e+00 96 72 55
2.502467e-01 3.519554e-01 -2.706242e+00 63 84 41
-6.540602e-01 3.040611e-01 -2.520694e+00 171 162 159
9.287430e-02 -8.751690e-01 -2.674234e+00 24 24 6
7.600964e-02 -4.466448e-01 -2.706546e+00 220 220 219
7.600964e-02 -4.466448e-01 -2.706546e+00 220 220 219
9.124000e-01 7.977494e-02 -3.083734e+00 203 209 201
9.482008e-01 9.165034e-02 -3.091450e+00 194 200 194
1.551023e-01 5.577746e-01 -2.692827e+00 105 94 73
6.092371e-01 5.839860e-01 -2.767510e+00 147 152 134
-7.480304e-02 -8.618226e-01 -2.690485e+00 166 141 12
-2.356386e-02 -4.174092e-01 -2.663371e+00 36 38 37
-2.356386e-02 -4.174092e-01 -2.663371e+00 36 38 37
3.655718e-01 -6.277908e-02 -3.066348e+00 71 114 42
4.013779e-01 9.483130e-02 -2.751839e+00 54 84 28
7.218000e-01 1.526674e-01 -2.918385e+00 160 168 158
2.162346e-01 6.610442e-02 6.302221e-01 0 255 0
2.133065e-01 6.614706e-02 5.803079e-01 255 255 0
1.888097e-01 1.454502e+00 2.537845e-01 255 0 0
1.837753e-01 1.434616e+00 2.081860e-01 255 255 0
-3.394158e-01 -1.148688e+00 5.137099e-01 0 255 0
-3.356166e-01 -1.134423e+00 4.659388e-01 255 255 0
6.799214e-01 -8.955879e-01 1.944256e-01 255 0 0
6.691133e-01 -8.837585e-01 1.470627e-01 255 255 0
2.102170e+00 -9.671256e-01 1.513692e-01 0 255 0
2.073937e+00 -9.557612e-01 1.116985e-01 255 255 0
1.014695e+00 -2.112824e+00 -8.288165e-01 255 0 0
9.983187e-01 -2.080617e+00 -8.633782e-01 255 255 0
-1.450952e+00 -7.590171e-01 -4.619682e-02 0 255 0
-1.433769e+00 -7.491208e-01 -9.209654e-02 255 255 0
2.440023e-01 -2.200523e+00 -7.250438e-01 255 0 0
2.335486e-01 -2.169447e+00 -7.627926e-01 255 255 0
