ply
format ascii 1.0
element face 0
property list uchar int vertex_indices
element vertex 521
property float x
property float y
property float z
property uchar diffuse_red
property uchar diffuse_green
property uchar diffuse_blue
end_header
-1.354968e-01 -8.300149e-01 -2.691336e+00 226 232 74
-4.738029e-01 -4.845134e-01 -2.683612e+00 31 27 24
-4.276561e-01 -5.384980e-01 -2.712701e+00 102 165 98
-5.020864e-01 -3.965184e-01 -2.634370e+00 38 39 34
-1.590820e-01 -3.091508e-01 -2.579344e+00 208 204 203
-1.189933e-01 -3.019535e-01 -2.595764e+00 217 218 212
-9.655393e-02 -2.499463e-01 -2.590352e+00 97 54 30
6.904542e-01 3.687774e-01 -2.881954e+00 220 237 236
-1.159013e-01 -4.237174e-01 -2.634533e+00 209 211 205
-4.308800e-01 -2.528154e-01 -2.638233e+00 55 78 65
-7.214280e-01 -2.288050e-01 -2.564596e+00 108 171 180
-7.270936e-01 -1.825305e-01 -2.546690e+00 113 171 178
-4.868204e-01 -5.822494e-01 -2.696205e+00 90 155 95
-1.350826e-01 -4.705493e-01 -2.643052e+00 29 28 26
9.307657e-03 -4.391612e-01 -2.680952e+00 28 28 33
-8.463193e-02 -4.209991e-01 -2.644378e+00 24 22 23
-1.191112e-01 -3.669821e-01 -2.615769e+00 208 210 206
-5.666167e-02 -3.609226e-01 -2.634292e+00 208 210 202
-4.312579e-01 -1.002465e+00 -2.561498e+00 33 38 41
1.189332e-01 -6.049025e-01 -2.770181e+00 78 7 0
6.709674e-02 -5.997929e-01 -2.748724e+00 168 130 128
-7.340853e-01 -4.820973e-01 -2.642718e+00 131 186 191
-5.148192e-02 -5.110704e-01 -2.684371e+00 207 211 204
2.738789e-02 -4.990092e-01 -2.705557e+00 207 210 203
-1.082135e-01 -4.558221e-01 -2.648192e+00 30 29 35
-1.082135e-01 -4.558221e-01 -2.648192e+00 30 29 35
1.085150e-01 -4.293912e-01 -2.712234e+00 49 11 11
4.883970e-02 -4.049884e-01 -2.684610e+00 30 27 28
4.883970e-02 -4.049884e-01 -2.684610e+00 30 27 28
-1.405568e-01 -3.957937e-01 -2.614155e+00 29 28 32
-4.890283e-01 -3.338923e-01 -2.624365e+00 54 103 70
3.313855e-02 -3.261223e-01 -2.651082e+00 239 43 42
9.732628e-02 -3.014168e-01 -2.667111e+00 56 9 0
2.347028e-01 4.415528e-01 -2.727471e+00 189 216 227
-7.074283e-01 -6.183041e-01 -2.698687e+00 127 34 48
-1.309376e-01 -6.394502e-01 -2.701807e+00 34 24 4
-1.309376e-01 -6.394502e-01 -2.701807e+00 34 24 4
-7.173053e-01 -4.964684e-01 -2.652338e+00 149 42 81
-1.248717e-01 -4.495503e-01 -2.640512e+00 211 211 203
7.932396e-02 -4.306341e-01 -2.702325e+00 36 34 37
7.932396e-02 -4.306341e-01 -2.702325e+00 36 34 37
-1.267050e-01 -4.045798e-01 -2.623678e+00 214 217 209
6.573748e-02 -3.785892e-01 -2.679549e+00 225 225 223
9.202192e-02 -3.749996e-01 -2.687744e+00 224 225 217
1.333937e-02 -3.543968e-01 -2.655581e+00 227 37 31
4.158144e-02 -3.515396e-01 -2.664450e+00 234 35 31
-4.761677e-01 -2.171583e-01 -2.596289e+00 65 86 77
2.000419e+00 -1.459478e+00 -4.865450e+00 146 144 149
2.191325e+00 -1.446984e+00 -4.892205e+00 87 77 83
-3.127451e-01 -8.963915e-01 -2.624836e+00 38 84 154
-1.074399e-03 -5.045355e-01 -2.698435e+00 213 215 213
-3.710535e-01 -1.763883e-01 -2.635956e+00 193 208 198
1.044030e+00 2.383368e-01 -3.153557e+00 56 51 49
-5.154838e-02 -4.154870e-01 -2.653283e+00 162 162 160
-5.115314e-01 -3.176315e-01 -2.608798e+00 78 158 112
-1.642012e-01 -4.938365e-01 -2.652568e+00 202 200 194
1.042946e+00 2.397694e-01 -3.149767e+00 56 51 49
-7.759141e-01 -1.220614e-01 -2.506229e+00 189 118 137
1.881618e+00 -8.651215e-01 -5.453748e+00 123 111 116
1.940327e+00 -6.308247e-01 -5.689698e+00 137 126 132
2.624594e-01 4.681174e-01 -2.723554e+00 220 246 252
1.848165e+00 -1.068575e+00 -5.258045e+00 86 77 83
1.830795e+00 -9.312841e-01 -5.387055e+00 122 113 121
1.781881e+00 -7.536646e-01 -5.565147e+00 95 80 83
-3.125714e-01 -8.962919e-01 -2.624528e+00 38 84 154
5.440194e-02 -8.480819e-01 -2.679082e+00 211 234 128
1.875262e+00 -6.282351e-01 -5.700197e+00 90 69 71
2.613694e-01 4.881932e-01 -2.726108e+00 41 75 77
-4.263247e-01 -5.381913e-01 -2.711426e+00 102 165 98
-6.274229e-01 -5.530339e-01 -2.705133e+00 95 151 147
-7.686045e-01 -1.819198e-01 -2.530749e+00 150 141 159
-7.409979e-01 1.200025e-02 -2.477660e+00 183 158 143
-1.922492e-02 -8.448243e-01 -2.697721e+00 238 239 76
-1.391438e-01 -8.322775e-01 -2.695734e+00 226 232 74
-9.333169e-02 -2.492140e-01 -2.592368e+00 97 54 30
6.772583e-01 -3.395309e-01 -3.450467e+00 129 130 131
-1.635888e-01 -3.088079e-01 -2.575736e+00 208 204 203
-6.555391e-01 -1.620598e-01 -2.578794e+00 117 163 176
6.324784e-01 4.587702e-02 -3.080699e+00 68 116 51
-1.645039e-01 -9.558652e-01 -2.624634e+00 93 101 99
-1.448226e-01 2.844797e-01 -2.724406e+00 63 191 228
-4.884937e-01 -6.447716e-01 -2.716601e+00 31 59 39
-8.747001e-02 2.972334e-01 -2.745717e+00 230 107 151
-1.603508e-01 -1.008053e+00 -2.572202e+00 25 61 49
-2.046092e-01 -9.038290e-01 -2.685351e+00 22 59 37
-3.240546e-01 -8.821213e-01 -2.628126e+00 191 211 219
2.183991e+00 -1.276765e+00 -5.056168e+00 130 119 125
1.850312e+00 -1.156295e+00 -5.179005e+00 127 123 126
6.024878e-01 -6.077226e-01 -2.933308e+00 38 56 14
-1.303934e-01 -2.712287e-01 -2.580452e+00 105 58 34
2.022491e+00 -8.373782e-02 -6.231593e+00 96 92 97
6.521515e-01 3.554405e-01 -2.907615e+00 120 133 108
-1.524926e-01 4.071607e-01 -2.822896e+00 221 244 205
-5.784794e-01 -9.710605e-01 -2.531975e+00 35 44 45
-1.836668e-01 -9.743984e-01 -2.601452e+00 47 50 52
1.921586e+00 -1.574025e+00 -4.747351e+00 96 79 78
-1.698941e-01 -9.034991e-01 -2.676883e+00 37 59 36
1.951912e+00 -1.498036e+00 -4.827206e+00 145 129 133
2.134691e+00 -1.452525e+00 -4.878276e+00 79 62 72
1.737639e+00 -1.401011e+00 -4.918812e+00 145 134 139
1.878179e+00 -1.208236e+00 -5.127058e+00 98 89 87
2.071252e+00 -7.501603e-01 -5.593204e+00 86 76 79
1.956174e+00 -6.630359e-01 -5.680572e+00 86 72 71
1.956174e+00 -6.630359e-01 -5.680572e+00 86 72 71
1.968970e+00 -3.171061e-01 -5.979712e+00 103 104 106
8.736220e-01 -6.777226e-02 -3.194088e+00 110 112 98
7.092572e-01 2.714283e-01 -2.900298e+00 201 218 218
1.993261e+00 -1.659598e+00 -4.679970e+00 140 133 134
1.793287e+00 -1.624992e+00 -4.690170e+00 99 83 87
-4.180588e-01 -9.675624e-01 -2.598294e+00 33 70 49
1.677000e+00 -1.558563e+00 -4.747323e+00 106 90 93
1.770119e+00 -1.523778e+00 -4.779318e+00 90 79 80
-2.922453e-01 -8.959430e-01 -2.616548e+00 26 78 160
2.048018e+00 -1.465140e+00 -4.867792e+00 102 87 91
2.048018e+00 -1.465140e+00 -4.867792e+00 102 87 91
7.935837e-02 -8.475716e-01 -2.674408e+00 217 242 116
5.460439e-02 -8.454070e-01 -2.674530e+00 211 234 128
1.951727e+00 -1.220088e+00 -5.111100e+00 87 77 82
1.706970e+00 -1.005485e+00 -5.320949e+00 123 110 113
2.147783e+00 -1.007816e+00 -5.330043e+00 84 73 77
-6.948429e-02 -4.421140e-01 -2.658600e+00 210 211 210
1.871934e+00 -8.427080e-01 -5.498414e+00 126 113 116
2.105479e+00 -3.467716e-01 -5.995506e+00 105 98 106
-2.825609e-01 -5.528872e-02 -2.730963e+00 157 86 117
2.007716e+00 -1.404584e-03 -6.311069e+00 79 75 76
2.278818e+00 2.022088e-01 -6.515539e+00 53 46 47
2.621735e-01 4.876601e-01 -2.729828e+00 41 75 77
-6.167970e-02 -7.566115e-01 -2.714853e+00 221 198 54
-2.790542e-01 -7.064317e-01 -2.659610e+00 33 30 23
-5.406737e-01 2.884214e-01 -2.551885e+00 219 224 225
-6.660934e-01 -5.729763e-01 -2.678736e+00 181 180 146
-7.688733e-02 -5.774497e-01 -2.703343e+00 17 17 15
-4.572445e-01 -3.469847e-01 -2.641813e+00 100 180 114
7.233863e-01 2.094755e-01 -2.887365e+00 205 223 222
-6.464112e-01 -7.314516e-01 -2.766722e+00 67 146 165
-4.809419e-01 -6.839449e-01 -2.734869e+00 93 163 103
-4.794886e-01 -6.825924e-01 -2.735969e+00 93 163 103
2.989964e-01 -6.512022e-01 -2.888343e+00 115 180 91
6.563156e-01 -6.449975e-01 -2.917502e+00 113 182 93
-3.618255e-01 -2.657065e-01 -2.648725e+00 16 16 14
2.822481e-01 -8.786888e-01 -2.706669e+00 244 254 98
3.112216e-01 -8.212103e-01 -2.696970e+00 23 24 16
5.626200e-01 -5.682502e-01 -2.977626e+00 100 162 78
-4.459806e-01 -3.900949e-01 -2.661643e+00 88 174 118
-8.978721e-02 6.578817e-01 -2.738781e+00 153 149 141
-7.179823e-01 -8.817508e-01 -2.854670e+00 112 121 128
6.540244e-01 -7.566316e-01 -2.821266e+00 16 19 12
6.540244e-01 -7.566316e-01 -2.821266e+00 16 19 12
6.963843e-01 -7.629285e-03 -3.041671e+00 112 184 93
-7.445110e-01 6.390958e-01 -2.598286e+00 145 141 138
-3.851862e-01 -1.007176e+00 -2.580499e+00 28 51 35
-2.493198e-01 -8.635614e-01 -2.743709e+00 110 111 106
6.769648e-01 -8.487018e-01 -2.848969e+00 18 18 14
-4.480506e-01 -7.314940e-01 -2.756707e+00 30 41 25
-8.024760e-03 -4.873197e-01 -2.688517e+00 205 207 204
8.124010e-02 -4.747777e-01 -2.716420e+00 214 213 210
-4.241255e-01 -2.207989e-01 -2.625752e+00 100 114 107
8.392559e-01 -4.361029e-02 -3.178496e+00 66 55 44
8.727932e-01 -6.123057e-03 -3.163051e+00 175 182 174
5.790770e-01 1.245445e-01 -3.082814e+00 79 136 67
-2.744665e-01 4.776910e-01 -2.693562e+00 64 51 41
-2.672935e-01 5.650467e-01 -2.692489e+00 194 197 191
-2.613459e-01 6.164370e-01 -2.696711e+00 150 150 144
-1.309396e-01 -1.020784e+00 -2.572874e+00 181 206 205
-1.327632e-01 -9.344503e-01 -2.649216e+00 40 49 48
1.003251e+00 -8.941424e-01 -2.810619e+00 60 33 16
-1.957739e-01 -8.669518e-01 -2.711786e+00 40 34 10
-5.044098e-01 -7.558749e-01 -2.743466e+00 93 155 92
-1.577246e-01 -5.494639e-01 -2.664016e+00 208 183 42
-1.620228e-01 -4.941197e-01 -2.645369e+00 202 200 194
-1.651668e-01 -3.821233e-01 -2.606245e+00 205 207 200
-1.396900e-01 -3.443314e-01 -2.601183e+00 189 189 194
5.073039e-02 -3.069888e-01 -2.653783e+00 81 5 0
-5.616820e-01 -2.511883e-01 -2.573169e+00 99 120 97
-4.378377e-01 -2.556154e-01 -2.630722e+00 55 75 63
-5.135529e-01 1.119467e-01 -2.622532e+00 222 80 135
-8.912100e-01 2.543471e-01 -2.581196e+00 110 88 90
1.019403e+00 7.557397e-01 -3.037925e+00 203 205 210
-1.394459e-01 -5.127725e-01 -2.654942e+00 42 16 15
-4.691085e-02 -4.505121e-01 -2.665065e+00 28 28 33
-8.478329e-02 -4.207986e-01 -2.644851e+00 24 22 23
2.700645e-02 -4.197958e-01 -2.678901e+00 212 214 208
-7.378698e-02 -3.908146e-01 -2.637898e+00 25 25 24
-3.189397e-02 -3.850098e-01 -2.649278e+00 30 28 29
-3.189397e-02 -3.850098e-01 -2.649278e+00 30 28 29
-2.064683e-02 -3.340238e-01 -2.638027e+00 216 213 211
5.651476e-03 -3.263341e-01 -2.645908e+00 42 18 15
5.459534e-03 -3.262679e-01 -2.646169e+00 42 18 15
7.340336e-01 -1.993807e-01 -2.361426e+00 197 209 209
-1.460647e-02 7.008242e-02 -2.825443e+00 108 201 215
9.034323e-01 7.535155e-02 -3.107686e+00 75 68 52
7.147639e-01 2.957633e-01 -2.908710e+00 110 116 99
-8.039503e-01 3.389571e-01 -2.548504e+00 146 135 141
2.687639e-01 -8.173937e-01 -2.698391e+00 125 127 116
6.628529e-01 -8.171887e-01 -2.840289e+00 124 137 129
-7.092286e-01 -7.441874e-01 -2.736806e+00 172 73 97
-5.034832e-01 -6.122508e-01 -2.700049e+00 97 158 106
-8.493520e-02 -5.032948e-01 -2.669395e+00 210 215 208
8.580447e-02 -4.914027e-01 -2.722336e+00 209 214 207
1.115759e-01 -4.755754e-01 -2.726140e+00 56 9 5
1.101825e-01 -4.560187e-01 -2.721570e+00 55 6 1
6.072978e-02 -4.432352e-01 -2.699479e+00 26 25 28
6.082663e-02 -4.433835e-01 -2.699432e+00 26 25 28
1.046263e+00 -5.177461e-01 -3.270796e+00 24 23 20
-5.133749e-02 -3.984787e-01 -2.647743e+00 201 204 193
-1.121968e-01 -3.908168e-01 -2.625427e+00 27 30 34
-9.305597e-03 -3.915047e-01 -2.657202e+00 215 219 212
-9.349983e-03 -3.921944e-01 -2.660599e+00 215 219 212
1.063484e-01 -3.621174e-01 -2.691601e+00 57 6 1
-8.652522e-02 -3.424216e-01 -2.620090e+00 207 212 208
-8.681569e-02 -3.424150e-01 -2.619347e+00 207 212 208
-5.583426e-01 -3.361726e-01 -2.593239e+00 39 53 39
8.119475e-02 -3.408461e-01 -2.672964e+00 243 41 29
8.115980e-02 -3.400209e-01 -2.672798e+00 243 41 29
3.279668e-02 -3.259456e-01 -2.651878e+00 239 43 42
7.858107e-02 -3.173535e-01 -2.667466e+00 241 43 35
7.859684e-02 -3.166667e-01 -2.666804e+00 241 43 35
9.707589e-02 -3.005044e-01 -2.668773e+00 56 9 0
1.057006e+00 2.815782e-01 -3.184685e+00 52 52 49
2.460430e-01 4.240162e-01 -2.732454e+00 96 139 78
6.512928e-01 4.685304e-01 -2.872841e+00 211 225 223
-7.743052e-01 5.342808e-01 -2.579552e+00 42 24 20
-7.935020e-01 5.697280e-01 -2.602790e+00 99 80 78
-1.105196e-01 6.871950e-01 -2.701386e+00 141 140 135
2.696139e+00 2.040099e+00 -6.193714e+00 119 113 127
9.941461e-01 -1.109528e+00 -2.919055e+00 182 189 182
-1.103487e-01 -8.906956e-01 -2.706031e+00 61 38 1
2.112180e+00 -1.377482e+00 -4.944241e+00 83 79 81
-4.946343e-01 -7.862312e-01 -2.755718e+00 41 74 49
-6.889692e-01 -7.639059e-01 -2.744517e+00 154 30 59
-6.973680e-01 -6.906368e-01 -2.727020e+00 154 30 60
1.608584e+00 -1.174683e+00 -5.116584e+00 99 85 91
1.608584e+00 -1.174683e+00 -5.116584e+00 99 85 91
-5.143179e-01 -6.342787e-01 -2.702591e+00 107 164 113
8.429178e-02 -5.959276e-01 -2.755882e+00 153 121 119
-7.166935e-01 -4.974448e-01 -2.650746e+00 149 42 81
-4.163642e-02 -4.945619e-01 -2.680760e+00 21 20 16
-4.169966e-02 -4.943475e-01 -2.680834e+00 21 20 16
-8.814747e-02 -4.739380e-01 -2.660770e+00 208 209 200
4.027338e-02 -4.757795e-01 -2.702760e+00 19 16 16
4.027338e-02 -4.757795e-01 -2.702760e+00 19 16 16
-5.956060e-02 -4.687753e-01 -2.667673e+00 212 217 212
-5.959798e-02 -4.687482e-01 -2.667392e+00 212 217 212
-7.770316e-02 -4.602662e-01 -2.659386e+00 18 17 23
-7.770316e-02 -4.602662e-01 -2.659386e+00 18 17 23
1.743012e+00 -8.908940e-01 -5.425601e+00 122 118 123
2.438045e-02 -4.580761e-01 -2.691349e+00 214 214 207
-1.248493e-01 -4.493870e-01 -2.639829e+00 211 211 203
-1.644009e-02 -4.495612e-01 -2.674899e+00 17 21 24
-9.456935e-02 -4.443435e-01 -2.648002e+00 209 215 208
-9.456935e-02 -4.443435e-01 -2.648002e+00 209 215 208
-9.264773e-03 -4.333546e-01 -2.672215e+00 221 224 220
6.005801e-02 -4.237743e-01 -2.693157e+00 215 222 219
9.365908e-02 -4.176726e-01 -2.703005e+00 216 219 215
-9.740272e-02 -4.005247e-01 -2.634214e+00 213 220 213
2.961387e-02 -3.833009e-01 -2.670222e+00 224 227 223
2.961387e-02 -3.833009e-01 -2.670222e+00 224 227 223
-9.777075e-02 -3.725012e-01 -2.621878e+00 207 211 206
7.787078e-02 -3.631951e-01 -2.680505e+00 26 19 16
1.826578e+00 -7.342908e-01 -5.582104e+00 138 126 130
-3.143284e-02 -3.352145e-01 -2.633259e+00 206 214 208
2.713984e+00 -6.794741e-01 -5.768122e+00 58 57 58
7.390759e-01 5.529753e-02 -2.981000e+00 117 128 100
7.096335e-01 1.019768e-01 -2.944303e+00 163 176 162
7.180063e-01 1.307847e-01 -2.922915e+00 192 204 195
6.649663e-01 4.151246e-01 -2.877272e+00 171 183 169
-3.912671e-02 4.499417e-01 -2.741316e+00 153 141 132
-3.912671e-02 4.499417e-01 -2.741316e+00 153 141 132
2.145965e-01 4.467604e-01 -2.730741e+00 28 36 45
2.063355e-01 4.679211e-01 -2.734133e+00 163 177 185
-7.121243e-02 4.919536e-01 -2.722226e+00 123 118 115
-7.611704e-01 4.838677e-01 -2.568245e+00 58 36 32
-2.773804e-01 5.280750e-01 -2.683914e+00 88 80 76
-2.719277e-01 6.106812e-01 -2.693042e+00 136 133 125
-7.486255e-01 6.657606e-01 -2.591537e+00 136 122 126
-2.875079e-01 -9.648213e-01 -2.617566e+00 16 16 15
-3.374246e-01 -9.049645e-01 -2.619818e+00 153 184 220
1.168119e-01 -8.697597e-01 -2.672859e+00 169 189 85
1.433752e-01 -7.703520e-01 -2.834514e+00 215 188 78
-4.101734e-01 -6.993616e-01 -2.767313e+00 89 126 90
-4.981689e-01 -6.269773e-01 -2.705719e+00 23 70 32
-5.604296e-02 -6.167658e-01 -2.716202e+00 156 115 107
-3.282335e-02 -6.123035e-01 -2.721888e+00 167 128 128
-1.142087e-02 -6.089210e-01 -2.726852e+00 168 133 128
-4.855568e-01 -6.054010e-01 -2.705133e+00 28 60 28
4.544875e-02 -6.007286e-01 -2.743683e+00 165 133 134
1.050984e-01 -5.926683e-01 -2.762289e+00 178 140 137
-1.013892e-01 -4.859180e-01 -2.659673e+00 28 25 24
9.881236e-02 -4.904541e-01 -2.728665e+00 212 218 212
-2.743723e-02 -4.635369e-01 -2.676283e+00 213 215 211
-2.881068e-03 -4.593924e-01 -2.683415e+00 209 212 210
-2.830218e-03 -4.594961e-01 -2.683540e+00 209 212 210
-6.949649e-02 -4.422141e-01 -2.655863e+00 210 211 210
9.700284e-02 -4.442086e-01 -2.713003e+00 178 183 176
9.713889e-02 -4.444453e-01 -2.712923e+00 178 183 176
-3.058576e-02 -4.377446e-01 -2.666477e+00 217 216 214
4.348069e-02 -4.390523e-01 -2.692119e+00 25 16 23
4.348069e-02 -4.390523e-01 -2.692119e+00 25 16 23
3.048277e-03 -4.215341e-01 -2.675390e+00 62 63 59
3.048277e-03 -4.215341e-01 -2.675390e+00 62 63 59
-1.427201e-03 -3.426985e-01 -2.648700e+00 52 15 13
2.388181e-02 -3.431758e-01 -2.655722e+00 113 15 9
2.388181e-02 -3.431758e-01 -2.655722e+00 113 15 9
-1.464677e-01 -3.351191e-01 -2.596632e+00 19 18 19
-1.464677e-01 -3.351191e-01 -2.596632e+00 19 18 19
5.191620e-02 -3.384748e-01 -2.663601e+00 72 9 5
9.843294e-02 -3.300903e-01 -2.677814e+00 113 6 4
9.843294e-02 -3.300903e-01 -2.677814e+00 113 6 4
2.435097e+00 -6.927018e-01 -5.735072e+00 66 59 65
2.435097e+00 -6.927018e-01 -5.735072e+00 66 59 65
-1.168532e-02 -3.192677e-01 -2.633395e+00 216 213 209
4.592093e-01 -3.037873e-01 -2.571725e+00 106 179 86
1.867808e+00 -6.558685e-01 -5.664158e+00 125 112 114
5.030280e-02 -3.061367e-01 -2.655210e+00 100 7 0
-7.259548e-01 -2.982832e-01 -2.582777e+00 84 170 186
1.941709e+00 -6.304619e-01 -5.688336e+00 137 126 132
1.923928e+00 -5.324557e-01 -5.780032e+00 123 111 117
1.899331e+00 -5.074816e-01 -5.802993e+00 93 79 83
-3.713697e-01 -1.763533e-01 -2.636047e+00 193 208 198
8.518283e-01 -2.438105e-02 -3.184131e+00 75 75 60
4.772585e-01 2.347222e-02 -3.081920e+00 61 105 14
9.759168e-01 4.957463e-02 -3.137934e+00 213 218 213
8.331290e-01 1.415854e-01 -3.073288e+00 93 91 80
1.016267e+00 2.382466e-01 -3.126510e+00 177 172 176
6.278701e-01 3.631568e-01 -2.913929e+00 138 155 138
6.505419e-01 4.024699e-01 -2.881807e+00 210 224 216
6.378048e-01 4.140494e-01 -2.884234e+00 162 179 161
-8.363970e-01 4.388707e-01 -2.619937e+00 84 71 71
-7.423887e-01 4.882554e-01 -2.551987e+00 140 120 117
6.197107e-01 5.680072e-01 -2.781469e+00 129 146 128
6.078529e-01 5.981688e-01 -2.741337e+00 160 171 158
1.938574e+00 -5.610931e-01 -5.774199e+00 126 116 121
1.191375e-01 -6.052230e-01 -2.769780e+00 91 25 8
-1.218454e-03 -5.047846e-01 -2.699166e+00 214 215 216
-1.741167e-01 -4.676053e-01 -2.648407e+00 185 151 131
-3.646013e-01 3.674268e-01 -2.696879e+00 234 239 242
-3.663182e-01 3.725525e-01 -2.709804e+00 234 239 242
5.952120e-02 -9.039952e-01 -2.689331e+00 100 76 20
4.271632e-01 2.888903e-01 -2.746923e+00 101 4 0
-1.267324e-01 4.421064e-01 -2.756725e+00 107 95 79
-4.704495e-01 -4.878609e-01 -2.671998e+00 43 42 40
-6.188888e-01 -2.134941e-01 -2.576263e+00 18 20 17
1.099522e-01 6.340435e-02 -2.898555e+00 123 188 100
-1.224335e-01 5.562387e-01 -2.744161e+00 180 185 180
3.589552e-01 6.278350e-01 -2.841557e+00 39 35 26
-4.688911e-01 -1.019910e+00 -2.553572e+00 31 38 40
-2.140185e-01 5.156646e-01 -2.718771e+00 188 191 182
-4.467423e-01 -6.118031e-01 -2.722956e+00 41 35 32
-5.130054e-01 -2.798800e-01 -2.585592e+00 78 91 73
-1.614085e-01 -2.582208e-01 -2.578545e+00 190 117 74
-1.614085e-01 -2.582208e-01 -2.578545e+00 190 117 74
-1.685268e-01 3.760419e-01 -2.814352e+00 230 240 240
-8.149842e-03 -8.500988e-01 -2.659449e+00 232 234 77
-6.491182e-01 -1.641254e-01 -2.568993e+00 101 173 192
2.681862e-01 1.435994e-01 -2.774865e+00 32 58 20
-6.892464e-03 -9.917909e-01 -2.588779e+00 176 137 71
-6.892464e-03 -9.917909e-01 -2.588779e+00 176 137 71
-4.950201e-01 -5.562337e-01 -2.687586e+00 44 39 35
1.029298e+00 -5.560362e-01 -3.326011e+00 113 104 97
-4.384731e-01 -1.898116e-01 -2.607798e+00 89 100 88
-4.256729e-01 -1.002669e-01 -2.672153e+00 175 188 202
-9.490845e-01 1.070715e+00 -5.130310e+00 199 207 174
-9.490845e-01 1.070715e+00 -5.130310e+00 199 207 174
2.911480e-01 2.248014e-01 -2.786349e+00 88 0 0
-6.238046e-01 2.166423e-01 -2.551021e+00 228 233 239
-1.917655e-01 3.546002e-01 -2.876320e+00 230 130 162
5.225806e-01 -1.093585e+00 -2.588590e+00 144 147 135
2.127766e-01 -1.037423e+00 -2.567473e+00 41 48 46
5.746704e-01 -1.067373e+00 -2.620189e+00 148 151 140
-6.121046e-02 -9.888110e-01 -2.593551e+00 58 65 66
1.214700e-01 -9.638688e-01 -2.620974e+00 44 57 57
-2.521178e-02 -9.234940e-01 -2.669480e+00 100 111 99
-6.506214e-01 -3.570009e-01 -2.638080e+00 180 174 131
-6.681249e-01 -2.168005e-01 -2.584505e+00 204 110 127
-6.091518e-01 -1.521592e-01 -2.591768e+00 145 188 192
-5.187312e-01 -1.052092e-01 -2.622987e+00 180 82 112
-3.689821e-01 -8.740091e-02 -2.691907e+00 190 182 195
-3.992075e-01 -7.328708e-02 -2.672681e+00 202 101 131
9.135571e-01 4.212690e-02 -3.123734e+00 205 207 200
9.138350e-01 4.368668e-02 -3.125411e+00 205 207 200
6.496321e-01 3.518279e-01 -2.901299e+00 123 133 110
-6.821168e-01 3.154662e-01 -2.529696e+00 158 167 159
-1.769137e-01 5.445489e-01 -2.752157e+00 190 200 196
2.285259e-01 6.280716e-01 -2.759504e+00 169 180 173
-4.907035e-01 -1.113813e+00 -2.478095e+00 106 126 124
-4.864608e-01 -6.476691e-01 -2.716792e+00 50 69 45
-4.013291e-01 -5.558747e-01 -2.730624e+00 26 25 16
-1.676673e-01 -1.476042e-01 -2.732992e+00 197 198 182
4.293962e-01 2.576047e-01 -2.822665e+00 118 17 12
2.975652e-01 -1.142891e+00 -2.468034e+00 153 170 169
-1.094329e-01 -8.920149e-01 -2.700034e+00 41 33 3
2.616280e-02 -8.471361e-01 -2.681851e+00 61 64 22
2.750737e-02 -6.047199e-01 -2.738182e+00 166 120 114
2.757594e-02 -6.050285e-01 -2.735403e+00 166 120 114
-1.029158e-01 -4.853979e-01 -2.665221e+00 13 14 9
-1.267705e-01 -4.035825e-01 -2.624881e+00 218 220 217
-3.614281e-01 -2.731863e-01 -2.078395e+00 136 193 208
-6.442709e-01 3.432882e-01 -2.512511e+00 230 228 233
-6.723846e-01 -7.840393e-01 -2.756206e+00 200 76 115
1.336507e-01 -8.729935e-01 -2.670157e+00 184 202 85
3.237143e-01 -8.755306e-01 -2.697776e+00 27 45 0
7.997328e-02 -8.502426e-01 -2.676428e+00 217 235 127
-4.310863e-01 -7.099620e-01 -2.758492e+00 82 117 74
9.962940e-01 -7.399078e-01 -2.682991e+00 105 136 60
1.015162e+00 -7.369812e-01 -2.684053e+00 97 127 56
1.770909e-02 -5.939473e-01 -2.726602e+00 22 19 17
1.040177e+00 -5.333874e-01 -3.319966e+00 95 82 74
1.620733e-02 -3.941630e-01 -2.669592e+00 53 53 55
1.623129e-02 -3.937988e-01 -2.671329e+00 53 53 55
-1.402150e-01 -3.783857e-01 -2.613873e+00 213 214 214
-1.777877e-01 -2.952141e-01 -2.574906e+00 224 206 194
-1.777233e-01 -2.949501e-01 -2.574052e+00 224 206 194
9.517608e-01 6.947661e-02 -3.115795e+00 213 211 202
9.143095e-01 7.530153e-02 -3.072267e+00 209 212 207
6.941403e-01 4.082054e-01 -2.858645e+00 175 186 172
-4.474210e-01 -3.912391e-01 -2.664425e+00 88 174 118
-8.985716e-02 -5.012926e-01 -2.672499e+00 210 214 208
-5.383559e-01 1.076076e-01 -2.639360e+00 222 80 135
3.362662e-01 -3.848478e-02 -3.051514e+00 99 147 71
1.039060e+00 -9.359244e-01 -2.880410e+00 156 154 144
-5.136884e-02 -3.986344e-01 -2.647785e+00 201 204 193
-6.486277e-01 -3.557832e-01 -2.633390e+00 169 166 121
4.882583e-02 -4.563746e-01 -2.698663e+00 204 210 203
-7.012410e-01 -6.494462e-01 -2.706598e+00 149 36 61
8.553817e-03 -6.068664e-01 -2.733251e+00 186 146 143
-1.456271e-01 -3.668608e-01 -2.608468e+00 37 35 33
-1.456271e-01 -3.668608e-01 -2.608468e+00 37 35 33
9.370250e-02 -2.868604e-01 -2.663991e+00 249 41 38
-6.579302e-01 -2.892518e-01 -2.610013e+00 179 88 109
7.893870e-02 -3.343468e-01 -2.678166e+00 241 44 32
-1.412364e-01 -6.724915e-01 -2.684837e+00 212 186 39
-1.205343e-01 -2.996920e-01 -2.598379e+00 216 220 216
-4.717593e-01 3.139716e-01 -2.738016e+00 235 237 241
-1.653215e-01 -3.822714e-01 -2.605926e+00 210 210 206
-5.550369e-01 -3.081947e-01 -2.595910e+00 102 126 101
-6.384116e-01 -4.823740e-01 -2.679891e+00 119 170 165
-7.406291e-02 -3.893564e-01 -2.638542e+00 32 30 30
9.250873e-01 2.465529e-03 -3.155075e+00 136 129 115
9.250873e-01 2.465529e-03 -3.155075e+00 136 129 115
-2.569316e-01 2.932832e-01 -2.740096e+00 94 198 223
1.581688e-01 -8.996305e-01 -2.666511e+00 162 141 29
-8.719731e-02 -3.422714e-01 -2.619499e+00 213 214 213
-3.974854e-01 -7.311810e-01 -2.779054e+00 113 137 121
-3.978910e-01 -7.313001e-01 -2.781299e+00 113 137 121
-6.993785e-01 -6.662138e-01 -2.712349e+00 158 34 65
-6.993785e-01 -6.662138e-01 -2.712349e+00 158 34 65
-1.034731e-01 -4.871701e-01 -2.657947e+00 13 14 9
7.982472e-02 -4.485446e-01 -2.707414e+00 221 223 221
-5.582330e-02 -6.170708e-01 -2.715394e+00 159 118 119
5.188186e-02 -3.388723e-01 -2.662631e+00 87 16 7
-5.464343e-01 -4.725725e-01 -2.668164e+00 32 35 28
4.192761e-01 4.524078e-01 -2.780419e+00 134 210 113
2.161831e-01 -9.763692e-01 -2.623502e+00 18 61 38
8.176111e-02 -3.937143e-01 -2.692104e+00 145 149 149
-5.260234e-01 -3.228094e-01 -2.609403e+00 78 151 107
-7.065769e-02 -2.967254e-01 -2.609152e+00 209 212 207
6.450027e-01 5.072646e-01 -2.845043e+00 123 127 108
5.326080e-01 -1.063066e+00 -2.605208e+00 43 26 18
-4.550806e-01 -7.732891e-01 -2.764714e+00 70 148 99
-3.993808e-01 -7.569482e-01 -2.781976e+00 80 157 107
-2.458129e-01 3.765468e-01 -2.724700e+00 162 163 147
-2.458129e-01 3.765468e-01 -2.724700e+00 162 163 147
6.482782e-01 5.033177e-01 -2.843699e+00 119 124 105
-6.042120e-01 -1.106662e+00 -2.472520e+00 69 97 81
-5.767263e-01 -1.043140e+00 -2.469473e+00 11 12 13
-6.399506e-01 -4.842633e-01 -2.683903e+00 110 168 164
3.683103e-01 4.422327e-02 -3.024508e+00 102 85 15
5.075280e-01 1.482144e-01 -3.118649e+00 18 39 15
-4.968313e-01 9.285372e-02 -2.572876e+00 190 214 165
-5.535041e-01 1.805435e-01 -2.531872e+00 212 100 139
2.280372e-01 -1.076732e+00 -2.510801e+00 68 86 104
-3.020180e-01 -9.635534e-01 -2.606180e+00 59 88 79
8.845861e-01 -8.436799e-02 -3.199260e+00 120 121 106
8.842909e-01 -8.397554e-02 -3.200099e+00 120 121 106
9.136622e-01 -2.083256e-02 -3.169035e+00 203 206 200
6.739080e-01 4.613028e-01 -2.848941e+00 163 171 161
-7.248848e-01 -7.656091e-01 -2.737208e+00 34 21 29
-4.287013e-02 -6.295074e-01 -2.723331e+00 26 22 23
-3.132796e-02 -3.351359e-01 -2.633278e+00 211 216 210
9.143674e-03 -6.069315e-01 -2.732592e+00 185 146 146
-1.915478e-03 -4.597587e-01 -2.681649e+00 217 222 219
-3.460152e-02 -3.646942e-01 -2.640058e+00 219 218 212
9.230071e-01 4.895111e-01 -2.966884e+00 134 112 107
-3.623517e-01 -9.009536e-01 -2.620892e+00 115 152 195
-1.177340e-01 -6.234320e-01 -2.699965e+00 149 127 123
1.184031e-01 -5.905763e-01 -2.771715e+00 68 6 0
-9.729871e-02 -4.979206e-01 -2.664198e+00 202 208 204
-9.729871e-02 -4.979206e-01 -2.664198e+00 202 208 204
9.821849e-02 -4.674526e-01 -2.720668e+00 209 211 211
-7.346400e-02 -4.828606e-01 -2.667768e+00 8 11 15
-2.665935e-02 -4.506330e-01 -2.670621e+00 24 26 33
9.252706e-02 -4.327647e-01 -2.707465e+00 20 15 19
-4.944273e-02 -4.320589e-01 -2.657296e+00 210 213 206
9.065688e-02 -3.603521e-01 -2.682385e+00 37 25 25
-1.256271e-01 -3.492246e-01 -2.605807e+00 25 25 26
-6.815782e-04 -3.131632e-01 -2.637357e+00 47 50 54
2.108662e-02 -3.092512e-01 -2.644626e+00 57 8 7
-1.226206e-01 -2.562689e-01 -2.578953e+00 166 106 64
3.978783e-01 -1.985890e-01 -2.576558e+00 143 211 115
9.150001e-01 5.337313e-02 -3.119758e+00 195 194 186
9.525490e-01 8.676791e-02 -3.108144e+00 101 84 75
7.942137e-01 1.740753e-01 -3.078670e+00 178 178 173
8.497334e-01 1.943924e-01 -3.057705e+00 174 180 170
7.331890e-01 1.600517e-01 -2.898394e+00 201 213 209
7.105929e-01 3.939983e-01 -2.864721e+00 171 178 167
-6.724203e-01 -3.727799e-01 -2.626755e+00 202 62 107
-7.248897e-01 -1.838741e-01 -2.544000e+00 125 178 182
8.757601e-01 4.740521e-01 -2.994432e+00 128 105 98
9.448431e-01 6.804316e-02 -3.120375e+00 208 212 203
2.174982e-01 6.183369e-02 6.443562e-01 0 255 0
2.145739e-01 6.193842e-02 5.944419e-01 255 255 0
1.909920e-01 1.455049e+00 2.621597e-01 255 0 0
1.859407e-01 1.435200e+00 2.165473e-01 255 255 0
-3.495397e-01 -1.160594e+00 5.496751e-01 0 255 0
-3.456310e-01 -1.146319e+00 5.019158e-01 255 255 0
6.800488e-01 -9.042389e-01 2.228903e-01 255 0 0
6.693403e-01 -8.923857e-01 1.755106e-01 255 255 0
2.120400e+00 -9.798931e-01 1.822687e-01 0 255 0
2.092200e+00 -9.684767e-01 1.425898e-01 255 255 0
1.018750e+00 -2.132843e+00 -8.103745e-01 255 0 0
1.002459e+00 -2.100586e+00 -8.449302e-01 255 255 0
