ply
format ascii 1.0
element face 0
property list uchar int vertex_indices
element vertex 423
property float x
property float y
property float z
property uchar diffuse_red
property uchar diffuse_green
property uchar diffuse_blue
end_header
-1.349966e-01 -8.284513e-01 -2.690579e+00 226 232 74
-4.724490e-01 -4.841282e-01 -2.682952e+00 31 27 24
-4.264374e-01 -5.379071e-01 -2.713418e+00 102 165 98
-5.002626e-01 -3.960386e-01 -2.632288e+00 38 39 34
-1.587913e-01 -3.090528e-01 -2.575524e+00 208 204 203
-1.186429e-01 -3.018699e-01 -2.594927e+00 217 218 212
-9.602343e-02 -2.498431e-01 -2.592542e+00 97 54 30
6.880539e-01 3.668513e-01 -2.880343e+00 220 237 236
-1.156389e-01 -4.233338e-01 -2.632344e+00 209 211 205
-4.296661e-01 -2.531193e-01 -2.637633e+00 55 78 65
-7.195092e-01 -2.289987e-01 -2.565157e+00 108 171 180
-7.249710e-01 -1.831581e-01 -2.546177e+00 113 171 178
-4.867039e-01 -5.823003e-01 -2.695733e+00 90 155 95
-1.348205e-01 -4.701607e-01 -2.641852e+00 29 28 26
9.196856e-03 -4.386520e-01 -2.680324e+00 28 28 33
-8.426198e-02 -4.204275e-01 -2.642973e+00 24 22 23
-1.185446e-01 -3.666143e-01 -2.616928e+00 208 210 206
-5.668241e-02 -3.606438e-01 -2.634342e+00 208 210 202
-4.297197e-01 -1.000414e+00 -2.560926e+00 33 38 41
1.181453e-01 -6.042132e-01 -2.769481e+00 78 7 0
6.696013e-02 -5.986034e-01 -2.746552e+00 168 130 128
-7.322440e-01 -4.815551e-01 -2.642940e+00 131 186 191
-5.135331e-02 -5.103612e-01 -2.683553e+00 207 211 204
2.707661e-02 -4.985421e-01 -2.705597e+00 207 210 203
-1.078821e-01 -4.552630e-01 -2.647932e+00 30 29 35
-1.078821e-01 -4.552630e-01 -2.647932e+00 30 29 35
1.081180e-01 -4.289317e-01 -2.711527e+00 49 11 11
4.855457e-02 -4.048649e-01 -2.686277e+00 30 27 28
4.855457e-02 -4.048649e-01 -2.686277e+00 30 27 28
-1.402413e-01 -3.955282e-01 -2.612372e+00 29 28 32
-4.874670e-01 -3.336549e-01 -2.624262e+00 54 103 70
3.286794e-02 -3.260908e-01 -2.649970e+00 239 43 42
9.649409e-02 -3.009363e-01 -2.662422e+00 56 9 0
2.335727e-01 4.391378e-01 -2.726165e+00 189 216 227
-7.051208e-01 -6.174076e-01 -2.697543e+00 127 34 48
-1.309126e-01 -6.388290e-01 -2.702004e+00 34 24 4
-1.309126e-01 -6.388290e-01 -2.702004e+00 34 24 4
-7.159469e-01 -4.966280e-01 -2.653950e+00 149 42 81
-1.245065e-01 -4.490820e-01 -2.641517e+00 211 211 203
7.900055e-02 -4.302579e-01 -2.702070e+00 36 34 37
7.900055e-02 -4.302579e-01 -2.702070e+00 36 34 37
-1.260861e-01 -4.040603e-01 -2.620913e+00 214 217 209
6.545545e-02 -3.781620e-01 -2.675765e+00 225 225 223
9.157329e-02 -3.744841e-01 -2.683386e+00 224 225 217
1.332865e-02 -3.540823e-01 -2.655749e+00 227 37 31
4.138892e-02 -3.513809e-01 -2.663961e+00 234 35 31
-4.741565e-01 -2.172105e-01 -2.592804e+00 65 86 77
2.003167e+00 -1.461811e+00 -4.870957e+00 146 144 149
2.194625e+00 -1.449401e+00 -4.897936e+00 87 77 83
-3.116613e-01 -8.946822e-01 -2.624222e+00 38 84 154
-1.230416e-03 -5.041464e-01 -2.698987e+00 213 215 213
-3.700373e-01 -1.769192e-01 -2.635343e+00 193 208 198
1.041087e+00 2.370560e-01 -3.151716e+00 56 51 49
-5.129461e-02 -4.151325e-01 -2.652988e+00 162 162 160
-5.104949e-01 -3.179271e-01 -2.608239e+00 78 158 112
-1.634435e-01 -4.930819e-01 -2.654794e+00 202 200 194
1.040010e+00 2.385712e-01 -3.147634e+00 56 51 49
-7.733274e-01 -1.225536e-01 -2.505657e+00 189 118 137
1.883981e+00 -8.659384e-01 -5.458334e+00 123 111 116
1.942896e+00 -6.311852e-01 -5.694447e+00 137 126 132
2.612701e-01 4.655985e-01 -2.722223e+00 220 246 252
1.850540e+00 -1.069840e+00 -5.262835e+00 86 77 83
1.832974e+00 -9.321845e-01 -5.391480e+00 122 113 121
1.783806e+00 -7.541354e-01 -5.569200e+00 95 80 83
-3.115775e-01 -8.946787e-01 -2.624135e+00 38 84 154
5.428400e-02 -8.463884e-01 -2.678398e+00 211 234 128
1.877571e+00 -6.285368e-01 -5.704691e+00 90 69 71
2.601810e-01 4.856114e-01 -2.724735e+00 41 75 77
-4.252088e-01 -5.385779e-01 -2.714650e+00 102 165 98
-6.262202e-01 -5.536381e-01 -2.706941e+00 95 151 147
-7.661323e-01 -1.819296e-01 -2.530874e+00 150 141 159
-7.389302e-01 1.041797e-02 -2.478077e+00 183 158 143
-1.915990e-02 -8.434382e-01 -2.697432e+00 238 239 76
-1.387508e-01 -8.310369e-01 -2.695570e+00 226 232 74
-9.318743e-02 -2.495508e-01 -2.592145e+00 97 54 30
6.755592e-01 -3.393591e-01 -3.448543e+00 129 130 131
-1.631984e-01 -3.090018e-01 -2.575664e+00 208 204 203
-6.537944e-01 -1.630331e-01 -2.578998e+00 117 163 176
6.303838e-01 4.510565e-02 -3.078630e+00 68 116 51
-1.639622e-01 -9.542488e-01 -2.624605e+00 93 101 99
-1.447099e-01 2.824346e-01 -2.723452e+00 63 191 228
-4.862292e-01 -6.418355e-01 -2.710901e+00 31 59 39
-8.754766e-02 2.951868e-01 -2.744640e+00 230 107 151
-1.597628e-01 -1.006186e+00 -2.572174e+00 25 61 49
-2.040210e-01 -9.024855e-01 -2.685311e+00 22 59 37
-3.231133e-01 -8.808694e-01 -2.628248e+00 191 211 219
2.186897e+00 -1.278351e+00 -5.060755e+00 130 119 125
1.852562e+00 -1.157751e+00 -5.183824e+00 127 123 126
6.007294e-01 -6.068007e-01 -2.932162e+00 38 56 14
-1.301207e-01 -2.715226e-01 -2.580321e+00 105 58 34
2.025355e+00 -8.243213e-02 -6.235243e+00 96 92 97
6.497381e-01 3.536371e-01 -2.905531e+00 120 133 108
-1.524053e-01 4.048439e-01 -2.821367e+00 221 244 205
-5.768030e-01 -9.697675e-01 -2.532451e+00 35 44 45
-1.830478e-01 -9.727050e-01 -2.601440e+00 47 50 52
1.923751e+00 -1.576015e+00 -4.751774e+00 96 79 78
-1.693894e-01 -9.021012e-01 -2.676805e+00 37 59 36
1.954193e+00 -1.499960e+00 -4.831729e+00 145 129 133
2.137346e+00 -1.454330e+00 -4.882659e+00 79 62 72
1.739581e+00 -1.402887e+00 -4.923606e+00 145 134 139
1.880474e+00 -1.209785e+00 -5.131874e+00 98 89 87
2.074122e+00 -7.506871e-01 -5.597829e+00 86 76 79
1.958769e+00 -6.633563e-01 -5.685060e+00 86 72 71
1.958769e+00 -6.633563e-01 -5.685060e+00 86 72 71
1.971566e+00 -3.164933e-01 -5.983519e+00 103 104 106
8.710824e-01 -6.810877e-02 -3.191836e+00 110 112 98
7.067049e-01 2.698970e-01 -2.898335e+00 201 218 218
1.995502e+00 -1.661616e+00 -4.684185e+00 140 133 134
1.795206e+00 -1.627068e+00 -4.694655e+00 99 83 87
-4.168434e-01 -9.661847e-01 -2.598564e+00 33 70 49
1.678760e+00 -1.560626e+00 -4.751998e+00 106 90 93
1.772029e+00 -1.525758e+00 -4.783905e+00 90 79 80
-2.913701e-01 -8.945979e-01 -2.616641e+00 26 78 160
2.050515e+00 -1.467008e+00 -4.872292e+00 102 87 91
2.050515e+00 -1.467008e+00 -4.872292e+00 102 87 91
7.914771e-02 -8.460542e-01 -2.674043e+00 217 242 116
5.446551e-02 -8.439178e-01 -2.674191e+00 211 234 128
1.954161e+00 -1.221639e+00 -5.115863e+00 87 77 82
1.708926e+00 -1.006638e+00 -5.325653e+00 123 110 113
2.150759e+00 -1.008928e+00 -5.334781e+00 84 73 77
-6.938599e-02 -4.418466e-01 -2.658297e+00 210 211 210
1.874290e+00 -8.434795e-01 -5.503045e+00 126 113 116
2.108553e+00 -3.462107e-01 -5.999733e+00 105 98 106
-2.819688e-01 -5.632771e-02 -2.730438e+00 157 86 117
2.010567e+00 1.441490e-04 -6.314576e+00 79 75 76
2.282685e+00 2.045165e-01 -6.519389e+00 53 46 47
2.608923e-01 4.850790e-01 -2.728346e+00 41 75 77
-6.138055e-02 -7.552271e-01 -2.713536e+00 221 198 54
-2.780275e-01 -7.052964e-01 -2.658438e+00 33 30 23
-5.392478e-01 2.862317e-01 -2.550932e+00 219 224 225
-6.632375e-01 -5.744502e-01 -2.672863e+00 181 180 146
-7.667678e-02 -5.775688e-01 -2.703276e+00 17 17 15
-4.558926e-01 -3.470922e-01 -2.640638e+00 100 180 114
7.209714e-01 2.082049e-01 -2.886470e+00 205 223 222
-6.445336e-01 -7.306263e-01 -2.764993e+00 67 146 165
-4.794686e-01 -6.830647e-01 -2.733559e+00 93 163 103
-4.794686e-01 -6.830647e-01 -2.733559e+00 93 163 103
2.980153e-01 -6.500937e-01 -2.886609e+00 115 180 91
6.543025e-01 -6.438926e-01 -2.916060e+00 113 182 93
-3.606875e-01 -2.660402e-01 -2.647709e+00 16 16 14
2.814443e-01 -8.768330e-01 -2.705593e+00 244 254 98
3.102910e-01 -8.195054e-01 -2.695972e+00 23 24 16
5.608286e-01 -5.673803e-01 -2.975868e+00 100 162 78
-4.444975e-01 -3.891723e-01 -2.660492e+00 88 174 118
-9.006913e-02 6.549534e-01 -2.737652e+00 153 149 141
-7.159980e-01 -8.806895e-01 -2.852572e+00 112 121 128
6.520542e-01 -7.551844e-01 -2.820209e+00 16 19 12
6.520542e-01 -7.551844e-01 -2.820209e+00 16 19 12
6.941083e-01 -8.262313e-03 -3.040345e+00 112 184 93
-7.429024e-01 6.357578e-01 -2.596955e+00 145 141 138
-3.837660e-01 -1.005271e+00 -2.579648e+00 28 51 35
-2.483950e-01 -8.619951e-01 -2.742147e+00 110 111 106
6.750182e-01 -8.470501e-01 -2.847893e+00 18 18 14
-4.466525e-01 -7.302989e-01 -2.757470e+00 30 41 25
-7.752177e-03 -4.865219e-01 -2.685532e+00 205 207 204
8.095205e-02 -4.743144e-01 -2.715687e+00 214 213 210
-4.227755e-01 -2.213148e-01 -2.624739e+00 100 114 107
8.367717e-01 -4.404969e-02 -3.176955e+00 66 55 44
8.665889e-01 -9.740209e-03 -3.140906e+00 175 182 174
5.770692e-01 1.235605e-01 -3.081432e+00 79 136 67
-2.741747e-01 4.750077e-01 -2.692265e+00 64 51 41
-2.669959e-01 5.622673e-01 -2.691411e+00 194 197 191
-2.610879e-01 6.135074e-01 -2.695547e+00 150 150 144
-1.302945e-01 -1.018638e+00 -2.572183e+00 181 206 205
-1.321481e-01 -9.325651e-01 -2.648117e+00 40 49 48
1.000829e+00 -8.925949e-01 -2.810908e+00 60 33 16
-1.950223e-01 -8.653496e-01 -2.710487e+00 40 34 10
-5.028529e-01 -7.548178e-01 -2.742062e+00 93 155 92
-1.568238e-01 -5.491274e-01 -2.661198e+00 208 183 42
-1.637302e-01 -4.930024e-01 -2.656428e+00 202 200 194
-1.647865e-01 -3.818279e-01 -2.607196e+00 205 207 200
-1.394594e-01 -3.443751e-01 -2.601133e+00 189 189 194
5.082811e-02 -3.070346e-01 -2.651698e+00 81 5 0
-5.590551e-01 -2.518889e-01 -2.568697e+00 99 120 97
-4.365491e-01 -2.559665e-01 -2.629860e+00 55 75 63
-5.115624e-01 1.056656e-01 -2.615290e+00 222 80 135
-8.883949e-01 2.519876e-01 -2.578932e+00 110 88 90
1.016689e+00 7.536175e-01 -3.036425e+00 203 205 210
-1.392628e-01 -5.118961e-01 -2.654407e+00 42 16 15
-4.664516e-02 -4.501150e-01 -2.661527e+00 28 28 33
-8.434667e-02 -4.202889e-01 -2.643904e+00 24 22 23
2.632723e-02 -4.193128e-01 -2.684633e+00 212 214 208
-7.317094e-02 -3.907471e-01 -2.635455e+00 25 25 24
-3.151397e-02 -3.847671e-01 -2.646493e+00 30 28 29
-3.151397e-02 -3.847671e-01 -2.646493e+00 30 28 29
-2.069405e-02 -3.338775e-01 -2.636464e+00 216 213 211
5.672175e-03 -3.263522e-01 -2.644113e+00 42 18 15
5.456063e-03 -3.262921e-01 -2.644836e+00 42 18 15
7.313884e-01 -1.995625e-01 -2.362471e+00 197 209 209
-1.496530e-02 6.882826e-02 -2.824170e+00 108 201 215
9.009147e-01 7.455474e-02 -3.106624e+00 75 68 52
7.122928e-01 2.941600e-01 -2.907309e+00 110 116 99
-8.018286e-01 3.364199e-01 -2.547186e+00 146 135 141
2.679729e-01 -8.157072e-01 -2.697347e+00 125 127 116
6.609121e-01 -8.156019e-01 -2.839196e+00 124 137 129
-7.073374e-01 -7.433811e-01 -2.736260e+00 172 73 97
-5.024719e-01 -6.111090e-01 -2.702483e+00 97 158 106
-8.463840e-02 -5.028822e-01 -2.667177e+00 210 215 208
8.581506e-02 -4.907905e-01 -2.720058e+00 209 214 207
1.103766e-01 -4.754462e-01 -2.726063e+00 56 9 5
1.097528e-01 -4.558445e-01 -2.717182e+00 55 6 1
6.031269e-02 -4.429181e-01 -2.695577e+00 26 25 28
6.062436e-02 -4.430705e-01 -2.697700e+00 26 25 28
1.043721e+00 -5.171035e-01 -3.269145e+00 24 23 20
-5.090474e-02 -3.980896e-01 -2.646394e+00 201 204 193
-1.115419e-01 -3.903680e-01 -2.624487e+00 27 30 34
-9.648972e-03 -3.913928e-01 -2.651723e+00 215 219 212
-8.987757e-03 -3.920197e-01 -2.658061e+00 215 219 212
1.063170e-01 -3.622669e-01 -2.686628e+00 57 6 1
-8.627313e-02 -3.423750e-01 -2.619387e+00 207 212 208
-8.630364e-02 -3.420317e-01 -2.618448e+00 207 212 208
-5.564810e-01 -3.363772e-01 -2.592155e+00 39 53 39
8.038509e-02 -3.403651e-01 -2.675568e+00 243 41 29
8.003096e-02 -3.399849e-01 -2.675808e+00 243 41 29
3.260350e-02 -3.260784e-01 -2.650048e+00 239 43 42
7.829335e-02 -3.170281e-01 -2.667312e+00 241 43 35
7.818861e-02 -3.160919e-01 -2.663714e+00 241 43 35
9.656718e-02 -3.006922e-01 -2.664206e+00 56 9 0
1.054341e+00 2.805034e-01 -3.183955e+00 52 52 49
2.447496e-01 4.216362e-01 -2.730962e+00 96 139 78
6.488944e-01 4.663862e-01 -2.871405e+00 211 225 223
-7.724839e-01 5.311936e-01 -2.578196e+00 42 24 20
-7.917140e-01 5.665738e-01 -2.601408e+00 99 80 78
-1.109315e-01 6.873440e-01 -2.707791e+00 141 140 135
2.717542e+00 2.061216e+00 -6.242682e+00 119 113 127
9.921598e-01 -1.107878e+00 -2.919672e+00 182 189 182
-1.099391e-01 -8.892126e-01 -2.707088e+00 61 38 1
2.115976e+00 -1.380017e+00 -4.951802e+00 83 79 81
-4.933357e-01 -7.853205e-01 -2.754499e+00 41 74 49
-6.868571e-01 -7.629661e-01 -2.742807e+00 154 30 59
-6.952964e-01 -6.899145e-01 -2.725298e+00 154 30 60
1.609796e+00 -1.175673e+00 -5.119156e+00 99 85 91
1.609796e+00 -1.175673e+00 -5.119156e+00 99 85 91
-5.134838e-01 -6.337504e-01 -2.704055e+00 107 164 113
8.394492e-02 -5.951379e-01 -2.755939e+00 153 121 119
-7.145277e-01 -4.972183e-01 -2.649481e+00 149 42 81
-4.172734e-02 -4.935468e-01 -2.682430e+00 21 20 16
-4.171547e-02 -4.932836e-01 -2.681728e+00 21 20 16
-8.793928e-02 -4.732169e-01 -2.661984e+00 208 209 200
3.933797e-02 -4.752753e-01 -2.706053e+00 19 16 16
3.933797e-02 -4.752753e-01 -2.706053e+00 19 16 16
-5.912524e-02 -4.682321e-01 -2.665301e+00 212 217 212
-5.912524e-02 -4.682321e-01 -2.665301e+00 212 217 212
-7.743036e-02 -4.597499e-01 -2.658483e+00 18 17 23
-7.743036e-02 -4.597499e-01 -2.658483e+00 18 17 23
1.744596e+00 -8.915662e-01 -5.428706e+00 122 118 123
2.467145e-02 -4.577327e-01 -2.687282e+00 214 214 207
-1.243913e-01 -4.489251e-01 -2.640405e+00 211 211 203
-1.634647e-02 -4.490439e-01 -2.674624e+00 17 21 24
-9.430679e-02 -4.437188e-01 -2.648947e+00 209 215 208
-9.430679e-02 -4.437188e-01 -2.648947e+00 209 215 208
-9.482248e-03 -4.327637e-01 -2.673906e+00 221 224 220
5.871677e-02 -4.243611e-01 -2.689694e+00 215 222 219
9.304380e-02 -4.173748e-01 -2.703402e+00 216 219 215
-9.680663e-02 -4.000519e-01 -2.632809e+00 213 220 213
2.966518e-02 -3.831266e-01 -2.667903e+00 224 227 223
2.966518e-02 -3.831266e-01 -2.667903e+00 224 227 223
-9.742233e-02 -3.720130e-01 -2.621480e+00 207 211 206
7.754287e-02 -3.630944e-01 -2.678312e+00 26 19 16
1.828549e+00 -7.347694e-01 -5.586010e+00 138 126 130
-3.118667e-02 -3.351970e-01 -2.633492e+00 206 214 208
2.724839e+00 -6.813462e-01 -5.788424e+00 58 57 58
7.363079e-01 5.390921e-02 -2.976357e+00 117 128 100
7.073084e-01 1.009451e-01 -2.942991e+00 163 176 162
7.156456e-01 1.296691e-01 -2.921636e+00 192 204 195
6.631697e-01 4.134150e-01 -2.876133e+00 171 183 169
-3.955618e-02 4.474386e-01 -2.739935e+00 153 141 132
-3.955618e-02 4.474386e-01 -2.739935e+00 153 141 132
2.135182e-01 4.444453e-01 -2.729721e+00 28 36 45
2.051487e-01 4.654010e-01 -2.732657e+00 163 177 185
-7.155448e-02 4.892892e-01 -2.720839e+00 123 118 115
-7.593136e-01 4.809096e-01 -2.566892e+00 58 36 32
-2.768195e-01 5.252000e-01 -2.682335e+00 88 80 76
-2.714093e-01 6.075615e-01 -2.691297e+00 136 133 125
-7.470039e-01 6.623201e-01 -2.590153e+00 136 122 126
-2.863543e-01 -9.628984e-01 -2.616401e+00 16 16 15
-3.361579e-01 -9.032869e-01 -2.618768e+00 153 184 220
1.166117e-01 -8.679528e-01 -2.671663e+00 169 189 85
1.429616e-01 -7.689075e-01 -2.832816e+00 215 188 78
-4.087536e-01 -6.983806e-01 -2.764790e+00 89 126 90
-4.966335e-01 -6.262502e-01 -2.704496e+00 23 70 32
-5.583465e-02 -6.157379e-01 -2.715581e+00 156 115 107
-3.255921e-02 -6.113622e-01 -2.720221e+00 167 128 128
-1.138511e-02 -6.080300e-01 -2.724858e+00 168 133 128
-4.841912e-01 -6.046801e-01 -2.704523e+00 28 60 28
4.535942e-02 -5.998182e-01 -2.740338e+00 165 133 134
1.047392e-01 -5.917910e-01 -2.759279e+00 178 140 137
-1.017022e-01 -4.856160e-01 -2.660243e+00 28 25 24
9.830915e-02 -4.899592e-01 -2.727006e+00 212 218 212
-2.710022e-02 -4.630634e-01 -2.674777e+00 213 215 211
-2.397857e-03 -4.586287e-01 -2.679696e+00 209 212 210
-2.397857e-03 -4.586287e-01 -2.679696e+00 209 212 210
-6.942330e-02 -4.415250e-01 -2.657108e+00 210 211 210
9.644761e-02 -4.437159e-01 -2.710452e+00 178 183 176
9.671808e-02 -4.439803e-01 -2.712537e+00 178 183 176
-3.063944e-02 -4.373185e-01 -2.666973e+00 217 216 214
4.319029e-02 -4.385582e-01 -2.691484e+00 25 16 23
4.319029e-02 -4.385582e-01 -2.691484e+00 25 16 23
2.969504e-03 -4.211909e-01 -2.674262e+00 62 63 59
2.969504e-03 -4.211909e-01 -2.674262e+00 62 63 59
-1.468273e-03 -3.422887e-01 -2.649714e+00 52 15 13
2.374904e-02 -3.430371e-01 -2.655368e+00 113 15 9
2.374904e-02 -3.430371e-01 -2.655368e+00 113 15 9
-1.459103e-01 -3.351964e-01 -2.595808e+00 19 18 19
-1.459103e-01 -3.351964e-01 -2.595808e+00 19 18 19
5.190235e-02 -3.382861e-01 -2.662522e+00 72 9 5
9.799538e-02 -3.299629e-01 -2.679274e+00 113 6 4
9.799538e-02 -3.299629e-01 -2.679274e+00 113 6 4
2.444051e+00 -6.946017e-01 -5.754156e+00 66 59 65
2.444051e+00 -6.946017e-01 -5.754156e+00 66 59 65
-1.171374e-02 -3.192714e-01 -2.632703e+00 216 213 209
4.575317e-01 -3.036893e-01 -2.571611e+00 106 179 86
1.870012e+00 -6.562315e-01 -5.668563e+00 125 112 114
5.004023e-02 -3.061621e-01 -2.654490e+00 100 7 0
-7.233603e-01 -2.983780e-01 -2.581432e+00 84 170 186
1.944372e+00 -6.308283e-01 -5.693572e+00 137 126 132
1.926479e+00 -5.325956e-01 -5.785224e+00 123 111 117
1.901739e+00 -5.075560e-01 -5.807990e+00 93 79 83
-3.703245e-01 -1.769318e-01 -2.635222e+00 193 208 198
8.493257e-01 -2.485579e-02 -3.182617e+00 75 75 60
4.755129e-01 2.269888e-02 -3.080407e+00 61 105 14
9.732661e-01 4.856010e-02 -3.131917e+00 213 218 213
8.315646e-01 1.410951e-01 -3.076246e+00 93 91 80
1.013504e+00 2.372631e-01 -3.125377e+00 177 172 176
6.256920e-01 3.614642e-01 -2.912899e+00 138 155 138
6.483080e-01 4.006165e-01 -2.880676e+00 210 224 216
6.356038e-01 4.121695e-01 -2.883118e+00 162 179 161
-8.344389e-01 4.361126e-01 -2.618559e+00 84 71 71
-7.404665e-01 4.853321e-01 -2.550484e+00 140 120 117
6.178702e-01 5.665541e-01 -2.783333e+00 129 146 128
6.056892e-01 5.955823e-01 -2.740200e+00 160 171 158
1.941152e+00 -5.613522e-01 -5.779076e+00 126 116 121
1.182590e-01 -6.045723e-01 -2.769073e+00 91 25 8
-1.200409e-03 -5.042102e-01 -2.698924e+00 214 215 216
-1.751263e-01 -4.589742e-01 -2.689549e+00 185 151 131
-3.658169e-01 3.707759e-01 -2.709616e+00 234 239 242
-3.658169e-01 3.707759e-01 -2.709616e+00 234 239 242
5.954893e-02 -9.021425e-01 -2.687989e+00 100 76 20
4.255807e-01 2.872692e-01 -2.746227e+00 101 4 0
-1.268936e-01 4.401964e-01 -2.756464e+00 107 95 79
-4.690984e-01 -4.873902e-01 -2.671399e+00 43 42 40
-6.171730e-01 -2.138776e-01 -2.575840e+00 18 20 17
1.092825e-01 6.235649e-02 -2.897536e+00 123 188 100
-1.226662e-01 5.541354e-01 -2.744032e+00 180 185 180
3.575217e-01 6.257340e-01 -2.841235e+00 39 35 26
-4.670735e-01 -1.017904e+00 -2.552209e+00 31 38 40
-2.139902e-01 5.136178e-01 -2.718662e+00 188 191 182
-4.451408e-01 -6.095208e-01 -2.727319e+00 41 35 32
-5.115610e-01 -2.800001e-01 -2.585283e+00 78 91 73
-1.609634e-01 -2.583132e-01 -2.578261e+00 190 117 74
-1.609634e-01 -2.583132e-01 -2.578261e+00 190 117 74
-1.685920e-01 3.743190e-01 -2.814021e+00 230 240 240
-7.924252e-03 -8.483889e-01 -2.658304e+00 232 234 77
-6.484415e-01 -1.637830e-01 -2.573597e+00 101 173 192
2.670761e-01 1.422667e-01 -2.773899e+00 32 58 20
-6.557522e-03 -9.896032e-01 -2.587609e+00 176 137 71
-6.557522e-03 -9.896032e-01 -2.587609e+00 176 137 71
-4.931144e-01 -5.549571e-01 -2.687831e+00 44 39 35
1.026819e+00 -5.556014e-01 -3.323589e+00 113 104 97
-4.377507e-01 -1.889518e-01 -2.610209e+00 89 100 88
-4.246793e-01 -1.008566e-01 -2.671882e+00 175 188 202
-9.524807e-01 1.071946e+00 -5.137367e+00 199 207 174
-9.524807e-01 1.071946e+00 -5.137367e+00 199 207 174
2.901345e-01 2.240343e-01 -2.789392e+00 88 0 0
-6.222143e-01 2.172800e-01 -2.549506e+00 228 233 239
-1.918117e-01 3.529688e-01 -2.875934e+00 230 130 162
5.205425e-01 -1.090982e+00 -2.581381e+00 144 147 135
2.124277e-01 -1.035009e+00 -2.566066e+00 41 48 46
5.717114e-01 -1.063156e+00 -2.608028e+00 148 151 140
-6.070741e-02 -9.866621e-01 -2.592395e+00 58 65 66
1.213630e-01 -9.617518e-01 -2.619633e+00 44 57 57
-2.489817e-02 -9.215974e-01 -2.668188e+00 100 111 99
-6.488477e-01 -3.570571e-01 -2.637352e+00 180 174 131
-6.665394e-01 -2.165707e-01 -2.585017e+00 204 110 127
-6.075468e-01 -1.526872e-01 -2.591450e+00 145 188 192
-5.175213e-01 -1.054450e-01 -2.623157e+00 180 82 112
-3.681615e-01 -8.801566e-02 -2.691606e+00 190 182 195
-3.982975e-01 -7.394863e-02 -2.672415e+00 202 101 131
9.114645e-01 4.151934e-02 -3.122161e+00 205 207 200
9.114645e-01 4.151934e-02 -3.122161e+00 205 207 200
6.475048e-01 3.501834e-01 -2.900274e+00 123 133 110
-6.805613e-01 3.135774e-01 -2.529342e+00 158 167 159
-1.762214e-01 5.382966e-01 -2.742037e+00 190 200 196
2.274122e-01 6.258324e-01 -2.759233e+00 169 180 173
-4.886494e-01 -1.111487e+00 -2.476519e+00 106 126 124
-4.852193e-01 -6.466725e-01 -2.717074e+00 50 69 45
-4.002006e-01 -5.552016e-01 -2.729941e+00 26 25 16
-1.673811e-01 -1.480388e-01 -2.732479e+00 197 198 182
4.278009e-01 2.560248e-01 -2.821639e+00 118 17 12
2.970144e-01 -1.140034e+00 -2.466688e+00 153 170 169
-1.089053e-01 -8.902715e-01 -2.698829e+00 41 33 3
2.626937e-02 -8.451886e-01 -2.680448e+00 61 64 22
2.752910e-02 -6.040990e-01 -2.734278e+00 166 120 114
2.752910e-02 -6.040990e-01 -2.734278e+00 166 120 114
-1.025871e-01 -4.848099e-01 -2.664512e+00 13 14 9
-1.264660e-01 -4.030173e-01 -2.625589e+00 218 220 217
-3.598832e-01 -2.732442e-01 -2.079319e+00 136 193 208
-6.428114e-01 3.413319e-01 -2.512227e+00 230 228 233
-6.704480e-01 -7.829971e-01 -2.754890e+00 200 76 115
1.334362e-01 -8.711882e-01 -2.668799e+00 184 202 85
3.228757e-01 -8.737207e-01 -2.696033e+00 27 45 0
7.991478e-02 -8.485229e-01 -2.675150e+00 217 235 127
-4.306596e-01 -7.091510e-01 -2.759741e+00 82 117 74
9.933873e-01 -7.385911e-01 -2.680995e+00 105 136 60
1.012221e+00 -7.356783e-01 -2.682083e+00 97 127 56
1.769068e-02 -5.930454e-01 -2.725531e+00 22 19 17
1.037653e+00 -5.330053e-01 -3.317497e+00 95 82 74
1.614687e-02 -3.934837e-01 -2.670569e+00 53 53 55
1.614687e-02 -3.934837e-01 -2.670569e+00 53 53 55
-1.385371e-01 -3.803201e-01 -2.604494e+00 213 214 214
-1.772071e-01 -2.949272e-01 -2.573770e+00 224 206 194
-1.772071e-01 -2.949272e-01 -2.573770e+00 224 206 194
9.490755e-01 6.855889e-02 -3.114034e+00 213 211 202
9.116523e-01 7.433347e-02 -3.070511e+00 209 212 207
6.919364e-01 4.065224e-01 -2.857900e+00 175 186 172
2.171509e-01 5.859266e-02 6.132709e-01 0 255 0
2.141977e-01 5.872740e-02 5.633583e-01 255 255 0
1.885854e-01 1.442238e+00 2.441532e-01 255 0 0
1.835402e-01 1.422427e+00 1.985235e-01 255 255 0
-3.451299e-01 -1.151393e+00 5.294780e-01 0 255 0
-3.412585e-01 -1.137161e+00 4.817027e-01 255 255 0
6.769867e-01 -9.005519e-01 2.053913e-01 255 0 0
6.662589e-01 -8.886929e-01 1.580175e-01 255 255 0
