ply
format ascii 1.0
element face 0
property list uchar int vertex_indices
element vertex 131
property float x
property float y
property float z
property uchar diffuse_red
property uchar diffuse_green
property uchar diffuse_blue
end_header
-1.315593e-01 -7.714339e-01 -2.694422e+00 226 232 74
-4.233223e-01 -4.621886e-01 -2.671557e+00 31 27 24
-3.820754e-01 -5.144292e-01 -2.709064e+00 102 165 98
-4.473695e-01 -3.868058e-01 -2.625102e+00 38 39 34
-1.565939e-01 -3.099996e-01 -2.560228e+00 208 204 203
-1.170233e-01 -3.038604e-01 -2.575404e+00 217 218 212
-9.550418e-02 -2.580807e-01 -2.570917e+00 97 54 30
5.913119e-01 2.809577e-01 -2.794548e+00 220 237 236
-1.145180e-01 -4.105848e-01 -2.615742e+00 209 211 205
-3.814996e-01 -2.611391e-01 -2.618271e+00 55 78 65
-6.381643e-01 -2.423761e-01 -2.567823e+00 108 171 180
-6.425940e-01 -2.024358e-01 -2.548560e+00 113 171 178
-4.367059e-01 -5.537591e-01 -2.696814e+00 90 155 95
-1.304727e-01 -4.517244e-01 -2.627331e+00 29 28 26
-3.893595e-03 -4.237054e-01 -2.656529e+00 28 28 33
-8.606240e-02 -4.081556e-01 -2.624946e+00 24 22 23
-1.157820e-01 -3.610598e-01 -2.600744e+00 208 210 206
-6.209073e-02 -3.558752e-01 -2.615546e+00 208 210 202
-3.879209e-01 -9.133635e-01 -2.578600e+00 33 38 41
9.547747e-02 -5.699832e-01 -2.742560e+00 78 7 0
4.909746e-02 -5.659153e-01 -2.725085e+00 168 130 128
-6.496006e-01 -4.636708e-01 -2.649836e+00 131 186 191
-5.758932e-02 -4.880081e-01 -2.667826e+00 207 211 204
1.226524e-02 -4.773371e-01 -2.684342e+00 207 210 203
-1.067238e-01 -4.385474e-01 -2.631468e+00 30 29 35
-1.067238e-01 -4.385474e-01 -2.631468e+00 30 29 35
8.411942e-02 -4.161006e-01 -2.684085e+00 49 11 11
3.075730e-02 -3.948401e-01 -2.661749e+00 30 27 28
3.075730e-02 -3.948401e-01 -2.661749e+00 30 27 28
-1.357741e-01 -3.852379e-01 -2.594531e+00 29 28 32
-4.371169e-01 -3.342432e-01 -2.620479e+00 54 103 70
1.628519e-02 -3.253801e-01 -2.624377e+00 239 43 42
7.159830e-02 -3.023183e-01 -2.630709e+00 56 9 0
1.902351e-01 3.402905e-01 -2.661951e+00 189 216 227
-6.260895e-01 -5.830722e-01 -2.704736e+00 127 34 48
-1.255734e-01 -6.013201e-01 -2.691210e+00 34 24 4
-1.255734e-01 -6.013201e-01 -2.691210e+00 34 24 4
-6.370544e-01 -4.789051e-01 -2.664458e+00 149 42 81
-1.213559e-01 -4.334462e-01 -2.626578e+00 211 211 203
5.816064e-02 -4.170882e-01 -2.676071e+00 36 34 37
5.816064e-02 -4.170882e-01 -2.676071e+00 36 34 37
-1.231255e-01 -3.931921e-01 -2.603643e+00 214 217 209
4.519812e-02 -3.701953e-01 -2.646863e+00 225 225 223
6.824860e-02 -3.671380e-01 -2.653589e+00 224 225 217
-1.120201e-03 -3.499010e-01 -2.631678e+00 227 37 31
2.390630e-02 -3.477897e-01 -2.639136e+00 234 35 31
-4.249166e-01 -2.304880e-01 -2.580130e+00 65 86 77
1.985624e+00 -1.433859e+00 -4.889814e+00 146 144 149
2.165933e+00 -1.418459e+00 -4.905917e+00 87 77 83
-2.847758e-01 -8.236009e-01 -2.630691e+00 38 84 154
-1.209562e-02 -4.822162e-01 -2.678652e+00 213 215 213
-3.344345e-01 -1.964874e-01 -2.618852e+00 193 208 198
9.142872e-01 1.732148e-01 -3.038317e+00 56 51 49
-5.669643e-02 -4.022619e-01 -2.630712e+00 162 162 160
-4.566838e-01 -3.187937e-01 -2.602317e+00 78 158 112
-1.542479e-01 -4.714291e-01 -2.640179e+00 202 200 194
9.142872e-01 1.732148e-01 -3.038317e+00 56 51 49
-6.848665e-01 -1.494453e-01 -2.509802e+00 189 118 137
1.947064e+00 -8.900795e-01 -5.575944e+00 123 111 116
2.031070e+00 -6.632339e-01 -5.846703e+00 137 126 132
2.146124e-01 3.629568e-01 -2.658267e+00 220 246 252
1.893158e+00 -1.084755e+00 -5.357317e+00 86 77 83
1.889077e+00 -9.532107e-01 -5.500366e+00 122 113 121
1.867378e+00 -7.869329e-01 -5.722813e+00 95 80 83
-2.847758e-01 -8.236009e-01 -2.630691e+00 38 84 154
3.703702e-02 -7.815238e-01 -2.668844e+00 211 234 128
1.973985e+00 -6.650487e-01 -5.878309e+00 90 69 71
2.132064e-01 3.802603e-01 -2.659333e+00 41 75 77
-3.820754e-01 -5.144292e-01 -2.709064e+00 102 165 98
-5.577774e-01 -5.277975e-01 -2.708533e+00 95 151 147
-6.789798e-01 -2.008103e-01 -2.533905e+00 150 141 159
-6.549868e-01 -3.426545e-02 -2.477392e+00 183 158 143
-2.668838e-02 -7.820936e-01 -2.693024e+00 238 239 76
-1.315593e-01 -7.714339e-01 -2.694422e+00 226 232 74
-9.550418e-02 -2.580807e-01 -2.570917e+00 97 54 30
6.203834e-01 -3.442603e-01 -3.377110e+00 129 130 131
-1.565939e-01 -3.099996e-01 -2.560228e+00 208 204 203
-5.816974e-01 -1.844656e-01 -2.574325e+00 117 163 176
5.549611e-01 1.324333e-03 -2.995737e+00 68 116 51
-1.552594e-01 -8.779162e-01 -2.633510e+00 93 101 99
-1.376429e-01 2.040614e-01 -2.676506e+00 63 191 228
-4.355402e-01 -6.054110e-01 -2.711530e+00 31 59 39
-8.745978e-02 2.155183e-01 -2.693971e+00 230 107 151
-1.528516e-01 -9.218652e-01 -2.586637e+00 25 61 49
-1.888901e-01 -8.343547e-01 -2.689606e+00 22 59 37
-2.943190e-01 -8.135629e-01 -2.638512e+00 191 211 219
2.180103e+00 -1.263760e+00 -5.086169e+00 130 119 125
1.881722e+00 -1.161411e+00 -5.252555e+00 127 123 126
5.262258e-01 -5.747435e-01 -2.884109e+00 38 56 14
-1.278239e-01 -2.772350e-01 -2.561936e+00 105 58 34
2.186204e+00 -1.190709e-01 -6.512520e+00 96 92 97
5.592100e-01 2.701839e-01 -2.816540e+00 120 133 108
-1.421726e-01 3.113072e-01 -2.766662e+00 221 244 205
-5.164882e-01 -8.880438e-01 -2.559212e+00 35 44 45
-1.724916e-01 -8.934471e-01 -2.613221e+00 47 50 52
1.894647e+00 -1.534114e+00 -4.758167e+00 96 79 78
-1.587669e-01 -8.336807e-01 -2.680576e+00 37 59 36
1.933106e+00 -1.466782e+00 -4.845237e+00 145 129 133
2.109521e+00 -1.422035e+00 -4.888848e+00 79 62 72
1.743677e+00 -1.385216e+00 -4.963530e+00 145 134 139
1.901805e+00 -1.208520e+00 -5.190782e+00 98 89 87
2.146948e+00 -7.768887e-01 -5.721713e+00 86 76 79
2.047096e+00 -6.948712e-01 -5.836081e+00 86 72 71
2.047096e+00 -6.948712e-01 -5.836081e+00 86 72 71
2.098242e+00 -3.542511e-01 -6.198744e+00 103 104 106
7.743916e-01 -9.792319e-02 -3.101387e+00 110 112 98
6.088620e-01 1.974793e-01 -2.810273e+00 201 218 218
1.952145e+00 -1.608006e+00 -4.678627e+00 140 133 134
1.768477e+00 -1.581671e+00 -4.703764e+00 99 83 87
-3.765593e-01 -8.875893e-01 -2.616623e+00 33 70 49
1.666748e+00 -1.525699e+00 -4.775099e+00 106 90 93
1.757527e+00 -1.492491e+00 -4.804103e+00 90 79 80
-2.668265e-01 -8.252697e-01 -2.627316e+00 26 78 160
2.027763e+00 -1.435679e+00 -4.883721e+00 102 87 91
2.027763e+00 -1.435679e+00 -4.883721e+00 102 87 91
5.863964e-02 -7.833076e-01 -2.668024e+00 217 242 116
3.703702e-02 -7.815238e-01 -2.668844e+00 211 234 128
1.969338e+00 -1.217517e+00 -5.166717e+00 87 77 82
1.761253e+00 -1.023547e+00 -5.427512e+00 123 110 113
2.184120e+00 -1.018304e+00 -5.404653e+00 84 73 77
-7.262350e-02 -4.271873e-01 -2.640206e+00 210 211 210
1.942103e+00 -8.681033e-01 -5.624747e+00 126 113 116
2.235815e+00 -3.832745e-01 -6.209261e+00 105 98 106
-2.565935e-01 -9.102287e-02 -2.699982e+00 157 86 117
2.182476e+00 -3.497469e-02 -6.615516e+00 79 75 76
2.484020e+00 1.769950e-01 -6.854428e+00 53 46 47
2.132064e-01 3.802603e-01 -2.659333e+00 41 75 77
5.980624e-02 7.486308e-03 8.734569e-02 0 255 0
5.882532e-02 7.680291e-03 3.735569e-02 255 255 0
5.136487e-02 1.050275e+00 -1.977289e-01 255 0 0
4.791265e-02 1.032322e+00 -2.442670e-01 255 255 0
